# .PCD v0.7 - Point Cloud Data file format
VERSION 0.7
FIELDS x y z
SIZE 4 4 4
TYPE F F F
COUNT 1 1 1
WIDTH 1587
HEIGHT 1
VIEWPOINT 0 0 0 1 0 0 0
POINTS 1587
DATA ascii
0.65257001 0.031307999 -1.4721
0.65636998 0.031335998 -1.4734
0.66066998 0.031381998 -1.4756
0.66447997 0.031408999 -1.4768
0.66780001 0.031417999 -1.4773
0.67262 0.031482 -1.4802001
0.67445999 0.031435002 -1.478
0.67628998 0.031387001 -1.4758
0.67861998 0.031358998 -1.4744999
0.68194997 0.031367 -1.4748
0.68427998 0.031337999 -1.4735
0.69217998 0.031509999 -1.4816
0.68840998 0.031261001 -1.4699
0.69532001 0.031397 -1.4763
0.69406998 0.031238999 -1.4689
0.69843 0.031282999 -1.4709001
0.70074999 0.031252999 -1.4694999
0.70669001 0.031351 -1.4741
0.71212 0.031429999 -1.4778
0.71705002 0.031491 -1.4807
0.72198999 0.031552002 -1.4835
0.72433001 0.031521 -1.4821
0.72981 0.031599 -1.4858
0.73846 0.031785998 -1.4945
0.74450999 0.031881001 -1.499
0.74317998 0.031723998 -1.4916
0.74128997 0.031548001 -1.4834
0.74681997 0.031624999 -1.487
0.7529 0.031720001 -1.4914
0.75310999 0.031615999 -1.4866
0.75652999 0.03162 -1.4868
0.76156002 0.031677999 -1.4895
0.76498997 0.031682 -1.4897
0.77437001 0.031883001 -1.4991
0.77943999 0.031939998 -1.5017999
0.78452998 0.031996999 -1.5045
0.78745002 0.031982001 -1.5038
0.78654999 0.031842001 -1.4972
0.79056001 0.031861998 -1.4982001
0.79402 0.031865001 -1.4983
0.80243999 0.032026999 -1.5059
0.80979002 0.032152999 -1.5118001
0.81107002 0.032083999 -1.5086
0.82067001 0.032280002 -1.5178
0.82029003 0.032157999 -1.512
0.82937002 0.032336 -1.5204
0.83178002 0.032301001 -1.5188
0.83418 0.032267001 -1.5172
0.83601999 0.032214001 -1.5147001
0.84347999 0.032338001 -1.5204999
0.84701997 0.032338001 -1.5204999
0.85056001 0.032338001 -1.5204999
0.85522997 0.032373 -1.5222
0.86276001 0.032494999 -1.5279
0.86860001 0.032563999 -1.5311
0.61998999 0.031941999 -1.4353
0.64412999 0.032788999 -1.4734
0.64743 0.032799002 -1.4737999
0.65219998 0.032867 -1.4769
0.65452999 0.032838002 -1.4756
0.66030997 0.032944001 -1.4802999
0.66115999 0.032857001 -1.4764
0.66696 0.032963 -1.4812
0.66680998 0.032836001 -1.4755
0.67412001 0.033 -1.4828
0.67545998 0.032931 -1.4797
0.67778999 0.032901 -1.4784
0.67962003 0.032852001 -1.4762
0.68447 0.032917999 -1.4791
0.68681002 0.032887001 -1.4778
0.69116998 0.032933 -1.4798
0.69299001 0.032884002 -1.4776
0.69582999 0.032871999 -1.4771
0.69765002 0.032822002 -1.4748
0.70152003 0.032848001 -1.476
0.70744997 0.032951001 -1.4806
0.70977998 0.032919999 -1.4792
0.71367002 0.032945 -1.4804
0.71653003 0.032933 -1.4798
0.72093999 0.032977 -1.4818
0.73163998 0.033248998 -1.494
0.73714 0.033330001 -1.4977
0.74214 0.033392999 -1.5005
0.7482 0.033491999 -1.505
0.74952 0.033422001 -1.5017999
0.74976999 0.033312999 -1.4969
0.75212997 0.03328 -1.4954
0.76089001 0.033473 -1.5041
0.76006001 0.033326998 -1.4974999
0.76134998 0.033256002 -1.4943
0.76424998 0.033241998 -1.4937
0.76984 0.033319999 -1.4972
0.77437001 0.033362001 -1.4991
0.77943999 0.033420999 -1.5017999
0.78236002 0.033406001 -1.5010999
0.78745002 0.033465002 -1.5037
0.79474002 0.033597998 -1.5096999
0.80315 0.033769 -1.5174
0.80335999 0.033659 -1.5124
0.8096 0.033753999 -1.5167
0.81309998 0.033755999 -1.5168
0.81770998 0.033794999 -1.5185
0.82011998 0.033759002 -1.5168999
0.82362998 0.03376 -1.517
0.83048999 0.033872001 -1.522
0.83345002 0.033854999 -1.5211999
0.83697999 0.033854999 -1.5213
0.84051001 0.033856001 -1.5213
0.84236002 0.033801001 -1.5188
0.84476 0.033764999 -1.5172
0.85509002 0.033985 -1.5271
0.86545002 0.034203999 -1.5369
0.86675 0.03413 -1.5336
0.86347002 0.033909999 -1.5237
0.64218998 0.034161001 -1.4698
0.64743 0.034253001 -1.4737999
0.65318 0.034364998 -1.4786
0.65551001 0.034334 -1.4773
0.66079998 0.034425002 -1.4812
0.66017002 0.034272999 -1.4746
0.66496998 0.034343001 -1.4776
0.66780001 0.034332 -1.4772
0.67212999 0.034382001 -1.4793
0.67496002 0.034371 -1.4788001
0.67778999 0.034359999 -1.4784
0.67962003 0.034308001 -1.4761
0.68295997 0.034317002 -1.4765
0.68730998 0.034364998 -1.4786
0.69471997 0.034533001 -1.4858
0.69757003 0.034520999 -1.4852999
0.70196003 0.034568999 -1.4874001
0.70431 0.034536 -1.4859999
0.70767999 0.034543999 -1.4863
0.71054 0.034531001 -1.4857
0.71442997 0.034557998 -1.4869
0.71471 0.034444999 -1.4821
0.72016001 0.034531999 -1.4858
0.72250998 0.034497999 -1.4843
0.73163998 0.034722999 -1.494
0.73610002 0.034768 -1.4959
0.74056 0.034813002 -1.4979
0.74871999 0.034997001 -1.5058
0.7511 0.034961998 -1.5043
0.75348002 0.034928001 -1.5028
0.75426 0.034834001 -1.4988
0.75502998 0.034740999 -1.4948
0.75632 0.034667 -1.4916
0.76402998 0.034828 -1.4985
0.77284998 0.035029002 -1.5071
0.77683997 0.035052001 -1.5081
0.78030998 0.035055999 -1.5082999
0.78268999 0.035020001 -1.5068001
0.78670001 0.035043001 -1.5078
0.79234999 0.035124 -1.5112
0.80129999 0.035321001 -1.5197001
0.80533999 0.035342999 -1.5207
0.80830002 0.035326 -1.5199
0.80739999 0.035172999 -1.5132999
0.80979002 0.035135999 -1.5118001
0.81273001 0.035119001 -1.511
0.8179 0.035177998 -1.5136
0.82808 0.035411 -1.5236
0.83216 0.035432 -1.5245
0.83569002 0.035433002 -1.5245
0.83810002 0.035395 -1.5229
0.83995003 0.035337001 -1.5204
0.84292001 0.035319 -1.5196
0.84928 0.035415001 -1.5238
0.85679001 0.035549 -1.5295
0.85921001 0.03551 -1.5278
0.86618 0.035624001 -1.5328
0.86518002 0.035470001 -1.5261
0.65085 0.035854999 -1.4798
0.65416002 0.035866 -1.4802999
0.65797001 0.035897002 -1.4816
0.65932 0.035822999 -1.4785
0.66610003 0.035980001 -1.485
0.66794997 0.035927001 -1.4828
0.67326999 0.036021002 -1.4867001
0.67412001 0.035925001 -1.4827
0.67646003 0.035893001 -1.4814
0.67879999 0.035859998 -1.48
0.68264002 0.035890002 -1.4813
0.68649 0.035918999 -1.4825
0.69085002 0.035969999 -1.4845999
0.69420999 0.035978001 -1.4849
0.69655001 0.035944998 -1.4836
0.70144999 0.036015 -1.4865
0.70533001 0.036044002 -1.4876
0.70871001 0.036052 -1.488
0.71104997 0.036017001 -1.4866
0.71805 0.036169998 -1.4928
0.71678001 0.03599 -1.4854
0.72483999 0.036184002 -1.4934
0.72562999 0.036086999 -1.4894
0.73215997 0.036217 -1.4948
0.73452002 0.036182001 -1.4933
0.73898 0.036228999 -1.4953001
0.74397999 0.036297001 -1.4981
0.75057 0.036426 -1.5034
0.75454003 0.036451001 -1.5045
0.75850999 0.036477 -1.5055
0.75769001 0.036318 -1.499
0.75579 0.036118001 -1.4907
0.7651 0.036348 -1.5002
0.77069998 0.036433998 -1.5037
0.77361 0.036417 -1.5031
0.77437001 0.036318999 -1.499
0.77673 0.036281999 -1.4974999
0.78452998 0.036449 -1.5044
0.79343998 0.036655001 -1.5129
0.79856998 0.036719002 -1.5154999
0.80260003 0.036742002 -1.5165
0.80171001 0.036582001 -1.5099
0.80409998 0.036543999 -1.5082999
0.80703002 0.036525998 -1.5075999
0.81494999 0.03669 -1.5143
0.82621998 0.036974002 -1.526
0.83029997 0.036995001 -1.5269001
0.83438998 0.037016001 -1.5278
0.83849001 0.037037 -1.5286
0.84482998 0.037138 -1.5328
0.84107 0.036876999 -1.522
0.84404999 0.036858 -1.5211999
0.84815001 0.036878001 -1.5221
0.85565001 0.037018001 -1.5278
0.86148 0.037097 -1.5311
0.86390001 0.037055999 -1.5294
0.86746001 0.037055001 -1.5294
0.64365 0.037137002 -1.4724
0.65134001 0.037346002 -1.4807
0.65513998 0.037379 -1.482
0.65943998 0.037434001 -1.4842
0.66128999 0.037379 -1.482
0.66807002 0.037542999 -1.4885
0.66894001 0.037443001 -1.4845001
0.67426002 0.037540998 -1.4884
0.67561001 0.037462998 -1.4852999
0.68045998 0.037537999 -1.4883
0.67778999 0.037285998 -1.4783
0.68616003 0.037512999 -1.4873
0.69154 0.037609 -1.4911
0.69388998 0.037574999 -1.4897
0.69572997 0.037517998 -1.4875
0.69960999 0.037548002 -1.4887
0.704 0.037599999 -1.4907
0.70583999 0.037542999 -1.4885
0.70819002 0.037507001 -1.4871
0.71569002 0.037687998 -1.4942
0.72218001 0.037825 -1.4997
0.73387003 0.038176998 -1.5136
0.73158997 0.037946999 -1.5045
0.73448998 0.037932001 -1.5039001
0.73373002 0.037765998 -1.4973
0.73714 0.037772 -1.4976
0.74056 0.037778001 -1.4978
0.74713999 0.037912998 -1.5031
0.75427002 0.038068 -1.5093
0.75718999 0.038052 -1.5087
0.76064003 0.038056999 -1.5089
0.75981998 0.037891999 -1.5023
0.76327002 0.037896 -1.5025001
0.76885003 0.037985999 -1.5061001
0.77446002 0.038075998 -1.5096
0.78008002 0.038164999 -1.5131
0.78030998 0.038040999 -1.5082
0.78377998 0.038045 -1.5084
0.79051 0.038175002 -1.5136
0.79943001 0.038389999 -1.5221
0.80348003 0.038414001 -1.523
0.80369997 0.038290001 -1.5181
0.80335999 0.038144998 -1.5123
0.81454998 0.038442001 -1.5240999
0.82028002 0.038527999 -1.5275
0.82600999 0.038614001 -1.5309
0.8301 0.038635999 -1.5318
0.83363998 0.038637001 -1.5318
0.83718002 0.038637999 -1.5319
0.83736998 0.038513001 -1.5269001
0.84371001 0.038617998 -1.5311
0.85062999 0.038743 -1.5361
0.85588002 0.038805999 -1.5385
0.85549003 0.038660001 -1.5328
0.86245 0.038784001 -1.5377001
0.86374998 0.038699999 -1.5344
0.86618 0.038658001 -1.5326999
0.86860001 0.038615 -1.531
0.63051999 0.03799 -1.4488
0.65280002 0.038895 -1.4833
0.65710002 0.038952 -1.4854
0.65797001 0.038849 -1.4815
0.65932 0.038768999 -1.4785
0.66758001 0.039007999 -1.4876
0.67041999 0.038995001 -1.4871
0.67426002 0.039028 -1.4884
0.67760998 0.039039001 -1.4887
0.68146002 0.039071001 -1.49
0.68330997 0.039012998 -1.4878
0.68616003 0.039000001 -1.4873
0.69305003 0.039168 -1.4937
0.69692999 0.039198998 -1.4949
0.69979 0.039184999 -1.4943
0.70520997 0.039283998 -1.4981
0.70757002 0.039248001 -1.4967
0.70687002 0.039076 -1.4901
0.70973003 0.039060999 -1.4895999
0.71517003 0.039159 -1.4933
0.71907997 0.039189 -1.4945
0.72507 0.039308999 -1.499
0.72744 0.039271001 -1.4976
0.73241001 0.039345 -1.5003999
0.73478001 0.039306998 -1.499
0.74080998 0.039425001 -1.5035
0.74475998 0.039453998 -1.5046
0.74924999 0.039503999 -1.5065
0.75269002 0.03951 -1.5067
0.75878 0.039627001 -1.5112
0.76328999 0.039675999 -1.5131
0.76782 0.039726 -1.5149
0.77181 0.039753001 -1.516
0.77528 0.039756998 -1.5161
0.77767998 0.039717 -1.5146
0.78008002 0.039677002 -1.5131
0.78246999 0.039636999 -1.5116
0.78811002 0.039728999 -1.5151
0.79648 0.039930001 -1.5227
0.80216002 0.040020999 -1.5262001
0.80620998 0.040045999 -1.5272
0.80917001 0.040027 -1.5264
0.80993998 0.039919 -1.5223
0.81510001 0.039987002 -1.5249
0.81806999 0.039967 -1.5242
0.82269001 0.040013 -1.5259
0.82677001 0.040036 -1.5268
0.83253002 0.040123999 -1.5301
0.83607 0.040125001 -1.5302
0.83793002 0.040061001 -1.5276999
0.84258997 0.040105 -1.5294
0.84894001 0.040213998 -1.5335
0.85474998 0.0403 -1.5369
0.85719001 0.040256999 -1.5352
0.85961998 0.040213 -1.5335
0.86260998 0.040190998 -1.5326999
0.86276001 0.040059999 -1.5276999
0.87203002 0.040275 -1.5359
0.64450997 0.039964002 -1.4684
0.65954 0.040546 -1.4898
0.65846002 0.040344 -1.4823
0.66079998 0.040307999 -1.4809999
0.66165 0.040201001 -1.4771
0.66992998 0.040447999 -1.4862
0.67177999 0.040387999 -1.484
0.67760998 0.040516999 -1.4887
0.68195999 0.040573999 -1.4908
0.68381 0.040514 -1.4886
0.68867999 0.040594 -1.4915
0.69455999 0.040720999 -1.4962
0.69590998 0.040637001 -1.4931
0.69827002 0.040599 -1.4917001
0.69910002 0.040491 -1.4877
0.70196003 0.040476002 -1.4872
0.70533001 0.040484998 -1.4875
0.70921999 0.040516999 -1.4887
0.71259999 0.040525001 -1.489
0.71649998 0.040557001 -1.4902
0.72248 0.040681001 -1.4947
0.72483999 0.040642001 -1.4933
0.73241001 0.040835001 -1.5003999
0.73738998 0.040911999 -1.5032001
0.74238002 0.040987998 -1.506
0.74738997 0.041064002 -1.5088
0.74978 0.041023999 -1.5073
0.7511 0.040936999 -1.5041
0.75401002 0.040920001 -1.5035
0.76169997 0.041110002 -1.5105
0.76621997 0.041161001 -1.5124
0.76968002 0.041166 -1.5125999
0.7726 0.041147999 -1.5118999
0.77661002 0.041175 -1.5129
0.78008002 0.04118 -1.513
0.78355002 0.041184001 -1.5132
0.79027998 0.041324999 -1.5184
0.79702002 0.041464999 -1.5235
0.80106997 0.041491002 -1.5245
0.80511999 0.041517001 -1.5254
0.80752999 0.041474 -1.5239
0.81159002 0.041499 -1.5247999
0.81400001 0.041455999 -1.5232
0.81917 0.041526001 -1.5258
0.81993002 0.041414998 -1.5217
0.82621998 0.041529 -1.5259
0.83530998 0.041756999 -1.5343
0.83774 0.041712999 -1.5326
0.83849001 0.0416 -1.5285
0.84202999 0.041600998 -1.5285
0.84726 0.041669 -1.531
0.84968001 0.041623998 -1.5294
0.85210001 0.041579001 -1.5276999
0.85961998 0.041735999 -1.5335
0.86205 0.041689999 -1.5318
0.86447001 0.041645002 -1.5301
0.87260002 0.041822001 -1.5367
0.63198 0.040932 -1.4513
0.65085 0.041733 -1.4797
0.65904999 0.041990999 -1.4888
0.66337001 0.042052001 -1.4910001
0.66622001 0.042038999 -1.4906
0.66758001 0.041951999 -1.4875
0.67339998 0.042086001 -1.4922
0.67675 0.042096999 -1.4926
0.67909998 0.042059001 -1.4913
0.68246001 0.042068999 -1.4916
0.68281001 0.041933 -1.4868
0.68717003 0.041992001 -1.4888999
0.69053 0.042002 -1.4893
0.69541001 0.042084999 -1.4922
0.70029998 0.042167999 -1.4951
0.70367998 0.042176999 -1.4954
0.70757002 0.042210001 -1.4966
0.71095997 0.042219002 -1.4969
0.71588999 0.042300001 -1.4998
0.72443998 0.042550001 -1.5087
0.72579998 0.042461 -1.5055
0.72817999 0.042420998 -1.5041
0.73003 0.042355999 -1.5017999
0.73241001 0.042314999 -1.5003999
0.74208999 0.042610999 -1.5108
0.74658 0.042665999 -1.5128
0.75212002 0.042768002 -1.5164
0.75187999 0.042606 -1.5107
0.75585997 0.042636 -1.5117
0.75612998 0.042498998 -1.5069
0.76010001 0.042528 -1.5079
0.76515001 0.042605001 -1.5106
0.77288002 0.042801 -1.5176001
0.77528 0.042757999 -1.5161
0.77661002 0.042668 -1.5128
0.77899998 0.042624999 -1.5113
0.78463 0.042723998 -1.5148
0.79027998 0.042823002 -1.5183001
0.79484999 0.042874001 -1.5201
0.80106997 0.042994998 -1.5245
0.81386 0.043400001 -1.5388
0.81246001 0.043189999 -1.5314
0.81873 0.043310001 -1.5355999
0.81840998 0.043147001 -1.5298001
0.82358998 0.043219 -1.5324
0.82380003 0.043079998 -1.5275
0.83177 0.043269001 -1.5342
0.83420002 0.043223999 -1.5326
0.83996999 0.043318 -1.5359
0.84240001 0.043272 -1.5343
0.84539002 0.043249 -1.5335
0.85232002 0.043389 -1.5384001
0.85250002 0.043249 -1.5335
0.85719001 0.043295 -1.5351
0.85961998 0.043248001 -1.5334001
0.86148 0.043178 -1.5309
0.86561 0.043200001 -1.5317
0.87317002 0.043361001 -1.5374
0.61786997 0.041643001 -1.4259
0.65182 0.043263 -1.4814
0.65856999 0.043453 -1.4879
0.66631001 0.043694999 -1.4962
0.66917002 0.043680999 -1.4957
0.66956002 0.043540001 -1.4909
0.67339998 0.043577 -1.4922
0.67675 0.043589 -1.4926
0.68358999 0.043777 -1.499
0.68595999 0.043737002 -1.4977
0.68983001 0.043772999 -1.4989001
0.68918002 0.043582 -1.4923
0.69154 0.043540999 -1.4909
0.69844002 0.043728001 -1.4973
0.70283997 0.043788001 -1.4994
0.70978999 0.043972999 -1.5057
0.71114999 0.043882001 -1.5026
0.71556997 0.043940999 -1.5046
0.72103 0.044050001 -1.5082999
0.72443998 0.044057999 -1.5086
0.72579998 0.043965999 -1.5055
0.72921002 0.043974001 -1.5058
0.73158997 0.043931998 -1.5043
0.73657 0.044013999 -1.5071
0.74208999 0.044121001 -1.5108
0.74343002 0.044027999 -1.5075999
0.75527 0.044433001 -1.5215
0.75821 0.044413999 -1.5208
0.75902998 0.044296 -1.5168
0.75984001 0.044178002 -1.5127
0.76222998 0.044133998 -1.5112
0.77261001 0.044461001 -1.5224
0.77715999 0.044514999 -1.5243
0.78064001 0.044520002 -1.5245
0.78574002 0.044597998 -1.5271
0.78331 0.044332001 -1.518
0.78570998 0.044287 -1.5165
0.78811002 0.044241998 -1.5149
0.80027997 0.044638 -1.5285
0.80488002 0.044690002 -1.5303
0.81002998 0.044766001 -1.5329
0.81246001 0.044720002 -1.5312999
0.81598002 0.044723 -1.5314
0.81840998 0.044675998 -1.5298001
0.8258 0.044847999 -1.5357
0.83099002 0.044923 -1.5383
0.83565003 0.044973001 -1.54
0.83753002 0.044900998 -1.5375
0.83996999 0.044853002 -1.5359
0.84240001 0.044805001 -1.5342
0.84876001 0.044927001 -1.5384001
0.85288 0.044950999 -1.5391999
0.85812998 0.045023002 -1.5417
0.85887998 0.044902001 -1.5375
0.86302 0.044925001 -1.5383
0.86545002 0.044876002 -1.5367
0.87186998 0.044994999 -1.5407
0.87602001 0.045017999 -1.5415
0.64353001 0.044314001 -1.4665
0.65904999 0.044985998 -1.4888
0.66631001 0.04521 -1.4960999
0.67065001 0.045274001 -1.4983
0.67449999 0.045313001 -1.4996001
0.67537999 0.045193002 -1.4956
0.67724001 0.045125999 -1.4934
0.68010002 0.045111999 -1.4929
0.68445998 0.045175001 -1.495
0.69133002 0.045368999 -1.5014
0.69471002 0.04538 -1.5017999
0.69657999 0.045311999 -1.4995
0.69894999 0.04527 -1.4981
0.70639002 0.045488 -1.5053999
0.70876998 0.045446001 -1.5039999
0.71012998 0.045350999 -1.5008
0.71199 0.045283001 -1.4986
0.71588999 0.045318 -1.4997
0.72135001 0.045430001 -1.5034
0.72579998 0.04549 -1.5053999
0.72921002 0.045499001 -1.5057
0.73627001 0.045687001 -1.512
0.74125999 0.045772001 -1.5148
0.74418002 0.045754001 -1.5142
0.74448001 0.045605998 -1.5093
0.74738997 0.045588002 -1.5087
0.75345999 0.045722999 -1.5131
0.76007998 0.045883 -1.5184
0.76354998 0.045889001 -1.5186
0.76914001 0.045997001 -1.5222
0.77261001 0.046002001 -1.5224
0.77502 0.045956999 -1.5209
0.78332001 0.046190999 -1.5286
0.78574002 0.046145 -1.5271
0.78707999 0.046046998 -1.5239
0.78841001 0.045949999 -1.5206
0.79082 0.045903001 -1.5191
0.79702002 0.046032999 -1.5233999
0.80378997 0.046188999 -1.5286
0.81058002 0.046344001 -1.5337
0.81465 0.046372 -1.5346
0.81652999 0.046298001 -1.5322
0.82391 0.046477001 -1.5381
0.82911003 0.046553999 -1.5407
0.83486998 0.046656001 -1.544
0.83841997 0.046658002 -1.5441
0.84143001 0.046633001 -1.5433
0.84666002 0.046709001 -1.5458
0.84911001 0.046659 -1.5441
0.85211998 0.046634 -1.5433
0.85343999 0.046534002 -1.54
0.85926002 0.046634 -1.5433
0.86171001 0.046583001 -1.5416
0.86811 0.046707001 -1.5457
0.87112999 0.046681002 -1.5448
0.87528998 0.046704002 -1.5456001
0.88116002 0.046801999 -1.5488
0.65134001 0.046225999 -1.4804
0.66052002 0.046565998 -1.4913
0.66434997 0.046606001 -1.4926
0.67262 0.046891 -1.5017
0.67597997 0.046902999 -1.5021
0.67834997 0.046861 -1.5008
0.68122 0.046845999 -1.5003
0.68159997 0.046695001 -1.4955
0.68595999 0.046760999 -1.4976
0.69133002 0.046879999 -1.5014
0.69371003 0.046836998 -1.5
0.69507003 0.046739999 -1.4969
0.69743001 0.046696998 -1.4955
0.70486999 0.046921998 -1.5027
0.70876998 0.046959002 -1.5039001
0.71522999 0.04713 -1.5094
0.71658999 0.047031999 -1.5062
0.72052002 0.047068 -1.5074
0.72341001 0.047049999 -1.5068001
0.73148 0.047299001 -1.5148
0.73232001 0.047173999 -1.5108
0.73730999 0.047262002 -1.5136
0.73970002 0.047215998 -1.5122
0.74313998 0.047224 -1.5124
0.74658 0.047231 -1.5125999
0.74949002 0.047212001 -1.512
0.75398999 0.047272 -1.5139
0.76378 0.047596 -1.5243
0.77096999 0.047788002 -1.5305001
0.77392 0.047766998 -1.5298001
0.78114003 0.047956999 -1.5359
0.78517002 0.047988001 -1.5369
0.78706998 0.047913998 -1.5345
0.78735 0.047759999 -1.5296
0.78977001 0.047711998 -1.528
0.79326999 0.047715999 -1.5282
0.79948002 0.047851 -1.5325
0.80353999 0.047881 -1.5334001
0.81195998 0.048119999 -1.5411
0.81932002 0.048305001 -1.5470001
0.82012999 0.048177 -1.5429
0.82147002 0.048075002 -1.5397
0.82501 0.048076998 -1.5397
0.83297002 0.048287001 -1.5464
0.83708 0.048314001 -1.5473
0.84285998 0.048418999 -1.5506999
0.84810001 0.048496999 -1.5532
0.85725999 0.048757002 -1.5615
0.85637999 0.048549 -1.5549001
0.85324001 0.048239 -1.5448999
0.85175002 0.048006002 -1.5375
0.85756999 0.048108999 -1.5408
0.86453003 0.048262998 -1.5457
0.87264001 0.048468001 -1.5522
0.88022 0.048645999 -1.558
0.87927002 0.048439 -1.5513
0.88515002 0.04854 -1.5545
0.64695001 0.047453001 -1.4725
0.65807998 0.047917001 -1.4869
0.66582 0.048183002 -1.4952
0.67557001 0.048560999 -1.5069
0.67597997 0.048404999 -1.5021
0.67834997 0.048362002 -1.5007
0.68221003 0.048402 -1.502
0.68757999 0.048525002 -1.5058
0.68945998 0.048452999 -1.5036
0.68932998 0.048269998 -1.4979
0.68967998 0.048114002 -1.493
0.69406003 0.048181001 -1.4951
0.70199001 0.048441999 -1.5032001
0.70436001 0.048397001 -1.5017999
0.70775002 0.048407 -1.5021
0.71675998 0.048721999 -1.5118999
0.71967 0.048703998 -1.5114
0.72461998 0.048796002 -1.5142
0.72804999 0.048804998 -1.5145
0.73148 0.048813999 -1.5148
0.73491001 0.048822001 -1.515
0.73834002 0.048831001 -1.5153
0.73865998 0.048673999 -1.5104001
0.74105 0.048627 -1.5089
0.75129002 0.048990998 -1.5203
0.75948 0.049245 -1.5281
0.76348001 0.049277999 -1.5292
0.76959997 0.049421001 -1.5336
0.77254999 0.049400002 -1.5329
0.77657998 0.049433 -1.534
0.78007001 0.049438 -1.5341001
0.78303999 0.049415998 -1.5334001
0.78546 0.049366999 -1.5319
0.78627998 0.049235001 -1.5278
0.79193002 0.049348 -1.5312999
0.79381001 0.049270999 -1.529
0.80057001 0.049438 -1.5341001
0.80027997 0.049252 -1.5283999
0.81304997 0.049715001 -1.5427001
0.81603998 0.049690999 -1.5420001
0.81739002 0.049585 -1.5387
0.81983 0.049534 -1.5371
0.82391 0.049563002 -1.538
0.83076 0.049725998 -1.5431
0.83320999 0.049674001 -1.5414
0.84618998 0.050129998 -1.5556
0.84921998 0.050104 -1.5548
0.85280001 0.050104 -1.5548
0.85358 0.049970999 -1.5506999
0.85435998 0.049837001 -1.5465
0.85680997 0.049784001 -1.5448999
0.85982001 0.049757 -1.544
0.86679 0.049915001 -1.5489
0.87264001 0.050020002 -1.5522
0.87851 0.050124999 -1.5554
0.88326001 0.050175998 -1.557
0.88630003 0.050147001 -1.5561
0.64583999 0.048650999 -1.4651
0.65600997 0.049070001 -1.4777
0.66868001 0.049633 -1.4947
0.67153001 0.049617998 -1.4942
0.67537999 0.049660001 -1.4955
0.68270999 0.049903002 -1.5028
0.68558002 0.049885999 -1.5023
0.68845999 0.049869999 -1.5017999
0.69033003 0.049795002 -1.4996001
0.69471002 0.049864002 -1.5016
0.69809002 0.049876001 -1.502
0.70248997 0.049943998 -1.5039999
0.70740998 0.050041001 -1.5069
0.71335 0.050193999 -1.5116
0.71574003 0.050147001 -1.5101
0.72273999 0.050356999 -1.5165
0.72719002 0.050423 -1.5185
0.72753 0.050260998 -1.5136
0.72940999 0.050184999 -1.5113
0.73180002 0.050136998 -1.5098
0.74041998 0.050429001 -1.5186
0.74335003 0.050409 -1.518
0.74835998 0.050501999 -1.5208
0.75443 0.050650999 -1.5253
0.75843 0.050686002 -1.5264
0.76084 0.050636001 -1.5249
0.76326001 0.050586998 -1.5233999
0.76567 0.050537001 -1.5219001
0.77392 0.050795998 -1.5297
0.77954 0.050914001 -1.5332
0.78250003 0.050891001 -1.5326
0.78386003 0.050783999 -1.5293
0.78627998 0.050733 -1.5278
0.78869998 0.050682001 -1.5262001
0.79488999 0.050825998 -1.5306
0.79894 0.050857998 -1.5316
0.80137002 0.050806001 -1.53
0.81304997 0.051227 -1.5427001
0.81713003 0.051258001 -1.5436
0.82012999 0.051231999 -1.5427999
0.82532001 0.051318001 -1.5454
0.83107001 0.051431 -1.5488
0.83739001 0.051571 -1.553
0.83985001 0.051516 -1.5513999
0.84064001 0.051378999 -1.5472
0.84587997 0.051463 -1.5498
0.85057002 0.051518001 -1.5513999
0.85358 0.051491 -1.5506001
0.85548002 0.051408 -1.5481
0.86131001 0.051518001 -1.5513999
0.86489999 0.051516999 -1.5513999
0.86623001 0.051406 -1.5481
0.87434 0.051624 -1.5546
0.88022 0.051731002 -1.5579
0.88666999 0.051865999 -1.5619
0.88972002 0.051835999 -1.561
0.61816001 0.048551999 -1.421
0.64682001 0.050117999 -1.4668
0.65600997 0.050489999 -1.4777
0.66325998 0.050742 -1.4851
0.65820003 0.050251 -1.4707
0.66447997 0.050443001 -1.4763
0.66780001 0.050457001 -1.4766999
0.68159997 0.051091999 -1.4953001
0.68646002 0.051194001 -1.4983
0.69033003 0.051236 -1.4995
0.70376998 0.051837999 -1.5171
0.70666999 0.051819999 -1.5166
0.70855999 0.051741999 -1.5143
0.71147001 0.051724002 -1.5138
0.71335 0.051646002 -1.5115
0.71574003 0.051598001 -1.5101
0.71812999 0.051548999 -1.5087
0.72565001 0.051793002 -1.5158
0.72855997 0.051773999 -1.5153
0.73303002 0.051840998 -1.5172
0.73904997 0.051996 -1.5218
0.74405998 0.052092001 -1.5246
0.74856001 0.052159 -1.5265
0.75202 0.052166 -1.5267
0.75704998 0.052260999 -1.5295
0.76630998 0.052588001 -1.5391001
0.77191001 0.052710999 -1.5427001
0.77434999 0.052659001 -1.5412
0.77679002 0.052607 -1.5396
0.77710998 0.052439 -1.5347
0.78806001 0.052848998 -1.5467
0.78356999 0.052421 -1.5342
0.78546 0.052338999 -1.5318
0.78789002 0.052287001 -1.5303
0.79732001 0.052607998 -1.5397
0.79975998 0.052554999 -1.5381
0.80219001 0.052501 -1.5365
0.80789 0.052618999 -1.54
0.81358999 0.052737001 -1.5434999
0.82423002 0.053112 -1.5544
0.82669997 0.053057 -1.5528001
0.833 0.053202 -1.557
0.83491999 0.053118002 -1.5546
0.84015 0.053204998 -1.5571001
0.84262002 0.053149 -1.5555
0.84397 0.053036001 -1.5522
0.84643 0.052979998 -1.5505
0.85391003 0.053178001 -1.5563999
0.85693997 0.053149998 -1.5555
0.86782002 0.053516999 -1.5663
0.86637002 0.053261999 -1.5588
0.86883998 0.053204 -1.5571001
0.87243998 0.053203002 -1.5571001
0.87831002 0.053314 -1.5603
0.88077998 0.053256001 -1.5585999
0.88496 0.053282 -1.5594
0.89086002 0.053390998 -1.5626
0.62382001 0.050143 -1.4258
0.63637 0.050742 -1.4428
0.64406002 0.051033001 -1.4511
0.64881003 0.051139999 -1.4541
0.64863002 0.050942 -1.4485
0.64643002 0.050622001 -1.4394
0.65916997 0.051215999 -1.4563
0.66895998 0.051626001 -1.4679
0.68782002 0.052581999 -1.4951
0.69621998 0.052898999 -1.5041
0.70213002 0.053061999 -1.5088
0.70603001 0.053103998 -1.51
0.71147001 0.053236999 -1.5137
0.71793002 0.053429 -1.5192
0.72289002 0.05353 -1.5221
0.72426999 0.053419001 -1.5189
0.72667998 0.053369001 -1.5175
0.72959 0.053348001 -1.5168999
0.73922998 0.053718999 -1.5274
0.74475002 0.053847998 -1.5311
0.74976999 0.053946 -1.5339
0.75116003 0.053833999 -1.5307
0.75253999 0.053722002 -1.5275
0.75443 0.053640001 -1.5252
0.75632 0.053557999 -1.5229
0.76664001 0.053954002 -1.5341001
0.77170998 0.054049999 -1.5369
0.77679002 0.054145001 -1.5396
0.78561002 0.054448999 -1.5482
0.7902 0.054513998 -1.5501
0.78303999 0.053925 -1.5333
0.78600001 0.0539 -1.5326
0.79595 0.054260999 -1.5429
0.80054998 0.054324999 -1.5447
0.80299997 0.054269001 -1.5431
0.80598003 0.054244 -1.5424
0.81222999 0.054395001 -1.5467
0.81467998 0.054338999 -1.5451
0.82367998 0.054636002 -1.5535001
0.82833999 0.054696999 -1.5553
0.83354998 0.054786999 -1.5578001
0.83601999 0.054730002 -1.5562
0.84179997 0.054848999 -1.5596
0.84428 0.054791 -1.5579
0.84675002 0.054733001 -1.5563
0.85255003 0.054850999 -1.5596
0.85614002 0.054850999 -1.5596
0.85917997 0.054821 -1.5588
0.86725998 0.055054002 -1.5654
0.87029999 0.055023 -1.5645
0.87503999 0.05508 -1.5662
0.87413001 0.054846 -1.5595
0.87944001 0.054931998 -1.5619
0.88191998 0.054871999 -1.5602
0.88496 0.054839998 -1.5592999
0.88515002 0.054664999 -1.5543
0.66575998 0.052758001 -1.457
0.69520998 0.054398 -1.5023
0.69758999 0.054347999 -1.501
0.70096999 0.054359999 -1.5013
0.71147001 0.054809 -1.5137
0.71894997 0.055069 -1.5209
0.72544003 0.055266 -1.5263
0.72785997 0.055213999 -1.5249
0.72771001 0.055007 -1.5192
0.72908002 0.054892998 -1.516
0.73509002 0.055057 -1.5204999
0.73957002 0.055128001 -1.5225
0.74924999 0.055507999 -1.533
0.75220001 0.055486001 -1.5324
0.75775999 0.055617001 -1.536
0.76072001 0.055594001 -1.5354
0.75999999 0.055355001 -1.5288
0.76822001 0.055638999 -1.5366
0.77170998 0.055645999 -1.5368
0.77943999 0.055898 -1.5438
0.78188998 0.055842001 -1.5422
0.78539997 0.055847999 -1.5424
0.78731 0.055762 -1.54
0.79136002 0.055796999 -1.541
0.79702002 0.055923998 -1.5445
0.80001003 0.055898 -1.5438
0.80408001 0.055932999 -1.5447
0.80869001 0.055996999 -1.5465
0.81386 0.056092001 -1.5491
0.82067001 0.056276999 -1.5542001
0.8215 0.056127999 -1.5501
0.82177001 0.055948999 -1.5452
0.82805997 0.056102999 -1.5494
0.83107001 0.056074001 -1.5486
0.83683002 0.056196999 -1.552
0.84316999 0.056349002 -1.5562
0.84729999 0.05638 -1.5571001
0.85144001 0.05641 -1.5579
0.86005002 0.056680001 -1.5654
0.85861999 0.05641 -1.5579
0.86501002 0.056559 -1.562
0.86580998 0.056409001 -1.5579
0.87448001 0.056676999 -1.5653
0.87977999 0.056763999 -1.5677
0.89077002 0.057149999 -1.5783
0.88476002 0.056641001 -1.5642999
0.88723999 0.056579001 -1.5626
0.88972002 0.056515999 -1.5608
0.68681997 0.055594001 -1.4933
0.69621998 0.055992998 -1.5039999
0.70062 0.05607 -1.5061001
0.70754999 0.056306999 -1.5124
0.71806002 0.056768 -1.5247999
0.72048002 0.056715 -1.5233999
0.72697002 0.056917999 -1.5288
0.73194999 0.057023998 -1.5317
0.73233002 0.056841999 -1.5268
0.73370999 0.056724001 -1.5237
0.73819 0.056798 -1.5256
0.74422997 0.056965999 -1.5301
0.74924999 0.057071 -1.5329
0.75533003 0.057238001 -1.5374
0.75775999 0.057181999 -1.536
0.76177001 0.057222001 -1.5369999
0.76735997 0.057356 -1.5405999
0.77454001 0.057583999 -1.5467
0.77699 0.057528 -1.5452
0.77943999 0.057471 -1.5437
0.78030002 0.057319 -1.5396
0.78060001 0.057135999 -1.5347
0.7841 0.057142001 -1.5349
0.79404002 0.057525001 -1.5451
0.79917002 0.057624001 -1.5477999
0.80486 0.057753 -1.5513
0.80948001 0.05782 -1.5531
0.81410998 0.057886001 -1.5549001
0.81984001 0.058014002 -1.5583
0.82503003 0.058111001 -1.5609
0.82477999 0.057895001 -1.5551
0.82723999 0.057835001 -1.5535001
0.83244997 0.05793 -1.556
0.83657002 0.057962999 -1.5569
0.84290999 0.058120001 -1.5611
0.85092002 0.058368001 -1.5678
0.85339999 0.058307 -1.5662
0.86089998 0.058522999 -1.572
0.86506999 0.058552999 -1.5728
0.86365002 0.058274999 -1.5653
0.86333001 0.058058999 -1.5595
0.86580998 0.057996001 -1.5578001
0.87391001 0.058240999 -1.5644
0.87582999 0.058146998 -1.5619
0.88340998 0.058359999 -1.5676
0.89156997 0.058602002 -1.5741
0.89578003 0.058630001 -1.5748
0.89029002 0.058137 -1.5616
0.69621998 0.057496998 -1.5039999
0.70415002 0.057806 -1.5121
0.71109003 0.058049001 -1.5184
0.71502 0.058093999 -1.5196
0.71996999 0.058203999 -1.5225
0.72595 0.05838 -1.5271
0.73041999 0.058456 -1.5290999
0.73642999 0.058630001 -1.5336
0.73834997 0.058541998 -1.5312999
0.74439001 0.058715001 -1.5358
0.74681997 0.058658998 -1.5344
0.75028998 0.058667999 -1.5346
0.75585002 0.058807001 -1.5382
0.75880998 0.058782998 -1.5376
0.76595998 0.059018001 -1.5438
0.77156001 0.059156001 -1.5474
0.77401 0.059098002 -1.5458
0.77647001 0.059039999 -1.5443
0.78262001 0.059207998 -1.5487
0.78667003 0.059246 -1.5497
0.79126 0.059317 -1.5516
0.79372001 0.059257001 -1.55
0.79724997 0.059262 -1.5501
0.80239999 0.059363998 -1.5528001
0.80431998 0.059271999 -1.5504
0.80948001 0.059372 -1.553
0.81194001 0.059312001 -1.5513999
0.81494999 0.059282999 -1.5506999
0.81795001 0.059254002 -1.5499001
0.82642001 0.059544999 -1.5575
0.83108002 0.059611 -1.5592999
0.83903998 0.059868999 -1.566
0.84538001 0.060029 -1.5702
0.85118002 0.060157999 -1.5736001
0.85202003 0.059999 -1.5694
0.85951 0.060222 -1.5752
0.86256999 0.06019 -1.5743999
0.86506999 0.060125001 -1.5727
0.86699998 0.060029998 -1.5702
0.86949998 0.059965 -1.5685
0.87255001 0.059932001 -1.5677
0.87729001 0.059994001 -1.5693001
0.88090998 0.059992 -1.5692
0.88340998 0.059925999 -1.5675
0.89043999 0.060113002 -1.5724
0.89178997 0.059983999 -1.569
0.89428997 0.059918001 -1.5673
0.69455999 0.058656 -1.4956
0.70451999 0.059108 -1.5072
0.71248001 0.059425 -1.5152
0.71741998 0.059537999 -1.5181
0.72187001 0.059617002 -1.5201
0.72530001 0.059627999 -1.5204
0.72975999 0.059707001 -1.5224
0.74247003 0.060322002 -1.5381
0.74541998 0.060298 -1.5375
0.74734002 0.060206998 -1.5352
0.74924999 0.060114998 -1.5328
0.75585002 0.060325 -1.5382
0.75932997 0.060332999 -1.5384001
0.76648998 0.060575001 -1.5446
0.77366 0.060816001 -1.5506999
0.77718002 0.060823001 -1.5509
0.78016001 0.060796 -1.5502
0.78579998 0.060936 -1.5538
0.78667003 0.060775999 -1.5497
0.7902 0.060780998 -1.5498
0.79211998 0.060688 -1.5474
0.79510999 0.060660001 -1.5467
0.79917002 0.060697999 -1.5477
0.80054998 0.060570002 -1.5444
0.80353999 0.060541999 -1.5437
0.80760998 0.060578998 -1.5447
0.81494999 0.060812999 -1.5506001
0.82121998 0.060981002 -1.5549001
0.83623999 0.061673 -1.5726
0.83546001 0.061411999 -1.5659
0.83630002 0.061250001 -1.5618
0.83876997 0.061186001 -1.5601
0.84898001 0.061579999 -1.5702
0.85312998 0.061613001 -1.571
0.85784 0.061678 -1.5727
0.86034 0.061613001 -1.571
0.86395001 0.061611999 -1.571
0.86699998 0.061579 -1.5702
0.87286001 0.061708 -1.5734
0.87817001 0.061802998 -1.5759
0.88124001 0.061769001 -1.575
0.87977999 0.061476 -1.5675
0.88397002 0.061505999 -1.5683
0.89043999 0.061664 -1.5723
0.89292997 0.061597001 -1.5706
0.89714003 0.061625 -1.5713
0.6595 0.057911001 -1.4408
0.70011002 0.060493998 -1.505
0.71464002 0.061269 -1.5243
0.72008997 0.061420001 -1.5281
0.72710001 0.061673999 -1.5344
0.73106003 0.061719 -1.5355
0.73605001 0.061834 -1.5384001
0.73952001 0.061843999 -1.5386
0.74555999 0.062026002 -1.5432
0.74852002 0.062001999 -1.5426
0.75199997 0.062011 -1.5427999
0.75601 0.062054001 -1.5439
0.75844997 0.061994001 -1.5424
0.76247001 0.062036999 -1.5434
0.76543999 0.062011 -1.5427999
0.77314001 0.062291998 -1.5498
0.77612001 0.062265001 -1.5491
0.77964002 0.062272001 -1.5493
0.78421003 0.062346999 -1.5511
0.78773999 0.062353 -1.5513
0.79126 0.062359001 -1.5513999
0.79319 0.062263001 -1.5491
0.79618001 0.062233999 -1.5483
0.80400997 0.062509999 -1.5552
0.80808997 0.062547997 -1.5562
0.81326002 0.062654004 -1.5588
0.8179 0.062725 -1.5606
0.82091999 0.062693998 -1.5598
0.82558 0.062765002 -1.5615
0.83734 0.063271999 -1.5742
0.84038001 0.063239999 -1.5734
0.83849001 0.062905997 -1.5651
0.84318 0.062973998 -1.5668
0.84622002 0.062941998 -1.5659
0.85589999 0.063309997 -1.5750999
0.86395001 0.063576996 -1.5818
0.87035 0.063744001 -1.5858999
0.86729997 0.063341998 -1.5759
0.86923999 0.063240997 -1.5734
0.87342 0.063272998 -1.5742
0.87817001 0.063337997 -1.5757999
0.88405001 0.063469 -1.5791
0.88486999 0.063299999 -1.5749
0.89247 0.063529 -1.5806
0.89156997 0.063262001 -1.5739
0.90090001 0.063588999 -1.582
0.90284997 0.063486002 -1.5795
0.70363998 0.062247001 -1.511
0.71513999 0.062829003 -1.5251
0.72415 0.063230999 -1.5349
0.72710001 0.063207 -1.5343
0.73360997 0.063431002 -1.5398
0.73605001 0.063372001 -1.5383
0.73900002 0.063346997 -1.5377001
0.74194998 0.063322 -1.5371
0.7511 0.063720003 -1.5468
0.75408 0.063694 -1.5461
0.76275998 0.064055003 -1.5549001
0.76523 0.063992999 -1.5534
0.76820999 0.063965999 -1.5528001
0.77068001 0.063904002 -1.5512
0.77524 0.063982002 -1.5531
0.77770001 0.063919 -1.5516
0.77964002 0.063821003 -1.5492001
0.78049999 0.063653 -1.5452
0.78827 0.063938998 -1.5520999
0.79392999 0.064084001 -1.5556
0.80334002 0.064471997 -1.5650001
0.80315 0.064234003 -1.5592
0.80777001 0.064308003 -1.561
0.81348002 0.064451002 -1.5645
0.81812 0.064524002 -1.5663
0.82169002 0.064526998 -1.5664001
0.82472003 0.064496003 -1.5656
0.83374 0.064843997 -1.5741
0.83133 0.064466 -1.5649
0.83380997 0.064400002 -1.5633
0.83849001 0.064470001 -1.5650001
0.84592998 0.064712003 -1.5709
0.85118002 0.064815998 -1.5734
0.85368001 0.064747997 -1.5717
0.86062002 0.064952999 -1.5767
0.87202001 0.065431997 -1.5883
0.87009001 0.065089002 -1.58
0.87092 0.064916998 -1.5757999
0.87062001 0.064677 -1.5700001
0.87366998 0.064640999 -1.5691
0.87673002 0.064604998 -1.5683
0.88656002 0.064976998 -1.5773
0.89529997 0.065279 -1.5846
0.89668 0.065140001 -1.5812
0.89292997 0.064695999 -1.5705
0.89999002 0.064896002 -1.5753
0.70958 0.063992001 -1.5156
0.71451002 0.064115003 -1.5185
0.72759998 0.064816996 -1.5351
0.73412001 0.065047003 -1.5405999
0.73707998 0.065021999 -1.54
0.74207997 0.065141 -1.5427999
0.74453002 0.065079004 -1.5413001
0.75265002 0.065413997 -1.5493
0.75615001 0.065424003 -1.5495
0.76275998 0.065649003 -1.5548
0.76157999 0.065334 -1.5474
0.76717001 0.065486997 -1.551
0.77539003 0.065817997 -1.5588
0.77733999 0.065718003 -1.5565
0.77876002 0.065582 -1.5532
0.78069001 0.065481 -1.5509
0.78473997 0.065523997 -1.5519
0.79145998 0.065745004 -1.5571001
0.79765999 0.065929003 -1.5615
0.80601001 0.066255003 -1.5692
0.80849999 0.066188999 -1.5676
0.80883998 0.065980002 -1.5627
0.81239998 0.065984003 -1.5628
0.81812 0.066129997 -1.5662
0.82060999 0.066063002 -1.5646
0.82472003 0.066101 -1.5655
0.82775003 0.066068999 -1.5648
0.83078003 0.066036001 -1.564
0.83600003 0.066143997 -1.5664999
0.84288001 0.066357002 -1.5716
0.84868002 0.066499002 -1.575
0.85174 0.066464998 -1.5741
0.85534 0.066464998 -1.5742
0.86172998 0.066639997 -1.5783
0.86422998 0.066569999 -1.5766
0.86953002 0.066674002 -1.5791
0.87036002 0.066497996 -1.5749
0.87118 0.066321999 -1.5707999
0.87311 0.066215001 -1.5682
0.87729001 0.066248 -1.569
0.88429999 0.066454999 -1.5739
0.88793999 0.066451997 -1.5739
0.89894998 0.0669 -1.5845
0.90318 0.066931002 -1.5852
0.90513003 0.066822998 -1.5826
0.69002002 0.064328998 -1.4876
0.72070998 0.066356003 -1.5345
0.72618002 0.066518001 -1.5382
0.73473001 0.066901997 -1.5470999
0.73821002 0.066914 -1.5474
0.74680001 0.067295998 -1.5562
0.74619001 0.06701 -1.5496
0.74865001 0.066946 -1.5481
0.75265002 0.066992998 -1.5492001
0.76133001 0.067372002 -1.558
0.76380002 0.067308001 -1.5565
0.76783001 0.067353003 -1.5575
0.77710003 0.067767002 -1.5671
0.78062999 0.067773998 -1.5673
0.78311998 0.067708001 -1.5657001
0.78666002 0.067714997 -1.5659
0.7902 0.067722 -1.5661
0.79268998 0.067654997 -1.5645
0.79411 0.067514002 -1.5613
0.79979002 0.067666002 -1.5648
0.80493999 0.067781001 -1.5674
0.80958003 0.067859001 -1.5692
0.81152999 0.067754 -1.5668
0.81401998 0.067685999 -1.5652
0.81757998 0.06769 -1.5653
0.82060999 0.067657001 -1.5646
0.82527 0.067732997 -1.5663
0.82993001 0.067808002 -1.5681
0.83788002 0.068099998 -1.5748
0.84476 0.068319 -1.5799
0.84781998 0.068283997 -1.579
0.84978002 0.068176001 -1.5766
0.85284001 0.068140998 -1.5757
0.85977 0.068356998 -1.5807
0.86449999 0.068428002 -1.5824
0.86923999 0.068498999 -1.584
0.87232 0.068461999 -1.5832
0.87483001 0.068388999 -1.5815001
0.87791002 0.068351999 -1.5806
0.87873 0.068171002 -1.5764
0.88124001 0.068097003 -1.5747
0.88599998 0.068166003 -1.5763
0.88849998 0.068092003 -1.5746
0.89270997 0.068124004 -1.5754
0.89749002 0.068190999 -1.5769
0.90684003 0.068542004 -1.585
0.72324002 0.068100996 -1.5387
0.72922999 0.068304002 -1.5433
0.73473001 0.068467997 -1.5470001
0.73768997 0.068442002 -1.5464
0.74373001 0.068644002 -1.551
0.74671 0.068617001 -1.5504
0.75071001 0.068664998 -1.5515
0.75317001 0.068599999 -1.55
0.75770003 0.068685003 -1.5519
0.75963998 0.068581 -1.5496
0.76991999 0.069081001 -1.5609
0.77919 0.069504 -1.5704
0.78272998 0.069512002 -1.5706
0.78785002 0.069632001 -1.5733
0.79351002 0.069789 -1.5769
0.79601997 0.06972 -1.5753
0.79904997 0.069688998 -1.5746
0.79943001 0.069470003 -1.5697
0.80352002 0.069513001 -1.5706
0.80227 0.069181003 -1.5631
0.81064999 0.069522999 -1.5709
0.81637001 0.069675997 -1.5743001
0.81993997 0.069679998 -1.5743999
0.82244998 0.069609001 -1.5728
0.82440001 0.069500998 -1.5704
0.83124 0.069727004 -1.5755
0.83482999 0.069729 -1.5755
0.83734 0.069656998 -1.5739
0.84148002 0.069696002 -1.5748
0.84562999 0.069734 -1.5756
0.84978002 0.069771998 -1.5765001
0.84842002 0.069440998 -1.569
0.85092002 0.069367997 -1.5674
0.85784 0.069588996 -1.5724
0.87090999 0.070212997 -1.5865
0.87399 0.070175 -1.5856
0.87931001 0.070284002 -1.5880001
0.88239002 0.070244998 -1.5872
0.88603997 0.070242003 -1.5871
0.88856 0.070165999 -1.5854
0.89165002 0.070127003 -1.5845
0.90210003 0.070560001 -1.5943
0.90122998 0.070265003 -1.5876
0.90432 0.070224002 -1.5867
0.90684003 0.070147 -1.585
0.67466003 0.065932997 -1.4559
0.72771001 0.069770001 -1.5407
0.73268998 0.069899 -1.5434999
0.73717999 0.069989003 -1.5455
0.74168003 0.070078999 -1.5475
0.74773002 0.070284002 -1.552
0.75483 0.070565999 -1.5583
0.75471997 0.070304997 -1.5525
0.76029003 0.070469998 -1.5561
0.76380002 0.070479997 -1.5563
0.77252001 0.070874996 -1.5651
0.77657002 0.070922002 -1.5661
0.77854002 0.070813999 -1.5637
0.78311998 0.070899002 -1.5656
0.78561002 0.070828997 -1.5641
0.7902 0.070913002 -1.5659
0.79640001 0.071111999 -1.5703
0.79943001 0.071079001 -1.5696
0.80618 0.071314998 -1.5748
0.80601001 0.071052 -1.569
0.81708002 0.071592003 -1.5809
0.81958997 0.071520001 -1.5793
0.82264 0.071484998 -1.5785
0.82135999 0.071145996 -1.5711
0.82331997 0.071034998 -1.5686001
0.82581002 0.070963003 -1.567
0.83047998 0.071041003 -1.5687
0.83734 0.071271002 -1.5738
0.84148002 0.071310997 -1.5747
0.85112 0.071727999 -1.5839
0.85749 0.071918003 -1.5881
0.86221999 0.071993001 -1.5898
0.86088002 0.071653999 -1.5822999
0.86339003 0.071578003 -1.5806
0.86923999 0.071727 -1.5839
0.87287003 0.071726002 -1.5839
0.87707001 0.071762003 -1.5847
0.87958997 0.071685001 -1.5829999
0.88716 0.071944997 -1.5887001
0.89194 0.072016001 -1.5903
0.89446998 0.071938001 -1.5885
0.8987 0.071971998 -1.5893
0.90406001 0.072079003 -1.5917
0.90432 0.071851 -1.5865999
0.90741003 0.071809001 -1.5857
0.72476 0.071396001 -1.5412
0.73583001 0.072007 -1.5544
0.73829001 0.071939997 -1.5529
0.74432999 0.072150998 -1.5575
0.74782997 0.072163001 -1.5577
0.75492001 0.072452001 -1.5639
0.75945997 0.072540998 -1.5659
0.76195002 0.072471999 -1.5644
0.76288003 0.072283998 -1.5603
0.76848 0.072452001 -1.5639
0.77355999 0.072578996 -1.5667
0.77552998 0.072469003 -1.5642999
0.77958 0.072517 -1.5654
0.78574997 0.072722003 -1.5698
0.78824002 0.07265 -1.5682
0.79337001 0.072774999 -1.5709
0.79693002 0.072780997 -1.5711
0.80315 0.072984003 -1.5754
0.80565 0.072911002 -1.5739
0.80760998 0.072798997 -1.5714
0.81493002 0.073077001 -1.5775
0.82120001 0.073276997 -1.5818
0.82424998 0.073241003 -1.581
0.82460999 0.073011003 -1.576
0.83090001 0.073209003 -1.5803
0.83993 0.073600002 -1.5887001
0.83864999 0.073252998 -1.5812
0.84333998 0.073331997 -1.5829999
0.84586 0.073256001 -1.5813
0.85551 0.073682003 -1.5905
0.85693997 0.073527999 -1.5872
0.86333001 0.073720999 -1.5914
0.86695999 0.073720999 -1.5913
0.87338001 0.073912002 -1.5955
0.87759 0.073949002 -1.5963
0.88291001 0.074061997 -1.5987
0.88265997 0.073790997 -1.5929
0.8908 0.074095003 -1.5994
0.89335001 0.074014999 -1.5977
0.89194 0.073668003 -1.5901999
0.89503998 0.073625997 -1.5893
0.8987 0.073622003 -1.5892
0.90689999 0.073922001 -1.5957
0.90943998 0.073840998 -1.5939
0.91426003 0.073912002 -1.5955
0.72272998 0.072809003 -1.5376
0.73227 0.073311999 -1.5483
0.73931003 0.07361 -1.5546
0.74432999 0.073743999 -1.5574
0.74680001 0.073674999 -1.5559
0.75184 0.073807999 -1.5587
0.76204002 0.074345998 -1.5700999
0.76762998 0.074518003 -1.5737
0.76962 0.074405998 -1.5714
0.77783 0.074778996 -1.5792
0.77407998 0.074221998 -1.5675
0.77866 0.074311003 -1.5694
0.78116 0.074239001 -1.5678
0.78627002 0.074367002 -1.5706
0.78877002 0.074294001 -1.569
0.80076998 0.074943997 -1.5827
0.80541003 0.075029999 -1.5845
0.80846 0.074996002 -1.5838
0.81044 0.074881002 -1.5814
0.80868 0.074486002 -1.5731
0.81172001 0.074450999 -1.5723
0.82227999 0.074974 -1.5834
0.82910001 0.075217001 -1.5885
0.83217001 0.075180002 -1.5877
0.83415002 0.075064003 -1.5853
0.83775997 0.075066 -1.5853
0.83919001 0.07491 -1.582
0.84389001 0.074991003 -1.5836999
0.85134 0.075268999 -1.5896
0.85661 0.075387999 -1.5921
0.85693997 0.075152002 -1.5871
0.86111999 0.075190999 -1.5879
0.86364001 0.075112 -1.5863
0.87005001 0.075308003 -1.5904
0.87759 0.075581998 -1.5962
0.88682002 0.075971998 -1.6044
0.88824999 0.075813003 -1.6011
0.8908 0.075731002 -1.5994
0.89165998 0.075531997 -1.5951
0.89251 0.075332999 -1.5908999
0.8973 0.075406998 -1.5925
0.89982998 0.075324997 -1.5908
0.91145003 0.075865999 -1.6022
0.91342998 0.075744003 -1.5996
0.91483003 0.075581998 -1.5962
0.72820997 0.074547 -1.5413001
0.73626 0.074933998 -1.5493
0.74330997 0.075237997 -1.5556
0.74988002 0.075498998 -1.561
0.75646001 0.075759001 -1.5664001
0.75998002 0.075769998 -1.5666
0.76762998 0.076110996 -1.5736001
0.76703 0.075790003 -1.567
0.77262998 0.075965002 -1.5706
0.77200001 0.075644001 -1.564
0.78232002 0.076187998 -1.5752
0.78482002 0.076113999 -1.5737
0.79258001 0.076451004 -1.5807
0.78877002 0.075883001 -1.5689
0.79179001 0.075848997 -1.5682
0.80063999 0.076265998 -1.5768
0.80474001 0.076312996 -1.5778
0.80565 0.076113999 -1.5737
0.80922002 0.076118998 -1.5738
0.80743003 0.075717002 -1.5655
0.82066 0.076454997 -1.5808001
0.82748997 0.076702997 -1.5858999
0.83217001 0.076788001 -1.5876
0.83578002 0.076791003 -1.5877
0.83069998 0.076144002 -1.5743001
0.83482999 0.076187 -1.5752
0.84170997 0.076431997 -1.5803
0.85407001 0.077081002 -1.5937001
0.85771 0.077081002 -1.5937001
0.85969001 0.076959997 -1.5912
0.86221999 0.076879002 -1.5895
0.86807001 0.077040002 -1.5929
0.86949003 0.076877996 -1.5895
0.87703001 0.077157997 -1.5953
0.87957001 0.077074997 -1.5936
0.88769001 0.077394001 -1.6002001
0.89024001 0.077310003 -1.5984
0.89165998 0.077147 -1.5951
0.89476001 0.077104002 -1.5942
0.8973 0.077019997 -1.5924
0.89982998 0.076935999 -1.5907
0.90463001 0.077010997 -1.5923001
0.91171998 0.077243999 -1.5971
0.91597003 0.077278003 -1.5978
0.72526002 0.076079004 -1.5418
0.73126 0.076306 -1.5464
0.74032998 0.076785997 -1.5561
0.74637002 0.077010997 -1.5607001
0.75448 0.077404 -1.5686001
0.75852001 0.077457003 -1.5697
0.76358002 0.077595003 -1.5725
0.76918 0.077774003 -1.5761
0.76858002 0.077445999 -1.5695
0.78145999 0.078213997 -1.5851001
0.77617002 0.077506997 -1.5707
0.78389001 0.077852003 -1.5777
0.78430003 0.077607997 -1.5728
0.79835999 0.078455001 -1.5899
0.79615003 0.078001 -1.5807
0.79918998 0.077965997 -1.58
0.80329001 0.078014001 -1.581
0.81005001 0.078270003 -1.5862
0.81257999 0.078192003 -1.5846
0.81616002 0.078197002 -1.5847
0.82082999 0.078285001 -1.5865
0.82335001 0.078206003 -1.5849
0.83126003 0.078542002 -1.5917
0.83324999 0.078420997 -1.5892
0.84336001 0.078919999 -1.5994
0.84101999 0.078466997 -1.5901999
0.84627002 0.078593001 -1.5927
0.85044003 0.078635 -1.5936
0.85626 0.078800999 -1.597
0.86154997 0.078924999 -1.5994999
0.86189002 0.078677997 -1.5944999
0.86609 0.078718998 -1.5953
0.86973 0.078717999 -1.5953
0.87726003 0.079003997 -1.6011
0.88091999 0.079002 -1.601
0.88849002 0.079286002 -1.6068
0.88937002 0.079077996 -1.6026
0.89024001 0.078870997 -1.5984
0.89222002 0.078745 -1.5958
0.89532 0.078699999 -1.5949
0.90464002 0.079103 -1.6030999
0.90662998 0.078975998 -1.6005
0.91428 0.079255 -1.6062
0.91912001 0.079329997 -1.6077
0.92567003 0.079525001 -1.6116
0.71614999 0.076766998 -1.5262001
0.73480999 0.078080997 -1.5523
0.74440002 0.078612998 -1.5628999
0.7525 0.079014003 -1.5709
0.75806999 0.079199001 -1.5746
0.75800002 0.078907996 -1.5688
0.76152003 0.078919001 -1.569
0.76969999 0.079317003 -1.5769
0.77271998 0.079283997 -1.5763
0.77990001 0.079594001 -1.5824
0.77982002 0.079301998 -1.5766
0.78337002 0.079310998 -1.5768
0.78692001 0.079319 -1.577
0.79048002 0.079327002 -1.5771
0.79878002 0.079719 -1.5849
0.80289 0.079768002 -1.5858999
0.80805999 0.079902001 -1.5886
0.81537002 0.080205999 -1.5946
0.8179 0.080126002 -1.5930001
0.81989998 0.080003001 -1.5906
0.82243001 0.079921998 -1.589
0.83195001 0.080393001 -1.5983
0.83449 0.080311 -1.5967
0.83811003 0.080314003 -1.5967
0.83578002 0.079852 -1.5875
0.85241997 0.080866002 -1.6077
0.84899002 0.080320001 -1.5969
0.85153002 0.080237001 -1.5951999
0.85407001 0.080153003 -1.5935
0.85661 0.080069996 -1.5919
0.86133999 0.080154002 -1.5936
0.86497998 0.080153003 -1.5935
0.86861998 0.080153003 -1.5935
0.87171 0.080109999 -1.5927
0.88037002 0.080484003 -1.6001
0.88960999 0.080898002 -1.6084
0.88993001 0.080645002 -1.6033
0.89191997 0.080517001 -1.6008
0.89222002 0.080264002 -1.5957
0.89814001 0.080426 -1.599
0.90407997 0.080587 -1.6022
0.90946001 0.080706999 -1.6045001
0.91372001 0.080742002 -1.6052999
0.91684002 0.080695003 -1.6043
0.92110997 0.080729999 -1.605
0.71705002 0.078042001 -1.5221
0.74237001 0.079952002 -1.5594
0.75454003 0.080712996 -1.5743001
0.76113999 0.080989003 -1.5796
0.76314002 0.080867998 -1.5773
0.76410002 0.08066 -1.5732
0.76402003 0.080362998 -1.5674
0.77221 0.080767997 -1.5753
0.77471 0.080689996 -1.5738
0.77929002 0.080787003 -1.5757
0.78807002 0.081233002 -1.5844001
0.79268003 0.081327997 -1.5862
0.79363 0.081118003 -1.5821
0.79720002 0.081124999 -1.5822999
0.80076998 0.081132002 -1.5824
0.80805999 0.081441998 -1.5885
0.81270999 0.081534997 -1.5903
0.81844002 0.081712998 -1.5937999
0.81669998 0.081285 -1.5854
0.82135999 0.081376001 -1.5872
0.83410001 0.082115002 -1.6016001
0.83718002 0.082075 -1.6008
0.84026998 0.082033999 -1.6
0.83903003 0.081648998 -1.5925
0.84156001 0.081565 -1.5908999
0.84573001 0.081610002 -1.5917
0.85044003 0.081697002 -1.5934
0.85298002 0.081611998 -1.5918
0.85715997 0.081656002 -1.5926
0.86299002 0.081827 -1.596
0.86884999 0.081997 -1.5993
0.87581998 0.082252003 -1.6043
0.88059002 0.082335003 -1.6059
0.88314998 0.082248002 -1.6042
0.89295 0.082713 -1.6133
0.89495999 0.082581997 -1.6107
0.90312999 0.082916997 -1.6172
0.90122002 0.082488 -1.6089
0.90829003 0.082737997 -1.6137
0.91141999 0.082690001 -1.6128
0.91228998 0.082473002 -1.6086
0.91372001 0.082298003 -1.6052001
