# .PCD v0.7 - Point Cloud Data file format
VERSION 0.7
FIELDS x y z
SIZE 4 4 4
TYPE F F F
COUNT 1 1 1
WIDTH 1318
HEIGHT 1
VIEWPOINT 0 0 0 1 0 0 0
POINTS 1318
DATA ascii
0.80789 0.26565 -1.676
0.80707002 0.26446 -1.6684999
0.80637997 0.26684999 -1.6732
0.80808002 0.26633 -1.6698999
0.80738002 0.27057999 -1.6743
0.80738002 0.27204001 -1.6741
0.82642001 0.27092999 -1.6569999
0.82910001 0.27067 -1.6554
0.83437002 0.27110001 -1.658
0.81230003 0.27487999 -1.6696
0.82898998 0.27346 -1.6609
0.80637997 0.27682 -1.6716
0.80958998 0.27669999 -1.6709
0.81230003 0.27645001 -1.6693
0.83437002 0.27449 -1.6575
0.83705002 0.27421999 -1.6559
0.83868998 0.27366999 -1.6526
0.84135997 0.27340999 -1.651
0.80707002 0.27768999 -1.6663001
0.80976999 0.27743 -1.6648
0.81550997 0.27801999 -1.6683
0.81718999 0.27746999 -1.665
0.82090998 0.27748999 -1.6651
0.84135997 0.27508 -1.6507
0.78627002 0.27748999 -1.6551
0.80185002 0.27886 -1.6633
0.80655998 0.27917001 -1.6652
0.80926001 0.27891001 -1.6636
0.81821001 0.27937999 -1.6665
0.84828001 0.27656999 -1.6497
0.82848001 0.27983999 -1.659
0.82910001 0.27901 -1.654
0.83487999 0.27959001 -1.6575
0.82692999 0.28117999 -1.6562001
0.82858002 0.28062001 -1.6529
0.83178002 0.28049999 -1.6521
0.83341002 0.27994001 -1.6488
0.84025002 0.28081 -1.654
0.84560001 0.28026 -1.6507
0.81616998 0.28393 -1.6622
0.81734002 0.28321999 -1.6581
0.82002002 0.28295001 -1.6565
0.82218999 0.28253999 -1.6540999
0.82692999 0.28285 -1.6559
0.83064997 0.28286001 -1.656
0.83332998 0.28259 -1.6544
0.81059998 0.28698 -1.6709
0.81718999 0.28573999 -1.6636
0.81887001 0.28518 -1.6604
0.82053 0.28461 -1.6571
0.82270998 0.28420001 -1.6547
0.82280999 0.2832 -1.6489
0.82805997 0.28365001 -1.6515
0.81059998 0.28858 -1.6706001
0.80976999 0.28727999 -1.6631
0.81397998 0.28744999 -1.6641001
0.81668001 0.28718001 -1.6625
0.82424998 0.28622001 -1.6569
0.83875 0.28413001 -1.6447999
0.80194998 0.29100001 -1.6741
0.80517 0.29087999 -1.6734
0.80976999 0.28902999 -1.6628
0.81397998 0.28920001 -1.6638
0.81668001 0.28893 -1.6622
0.81989002 0.2888 -1.6615
0.82257998 0.28852999 -1.6599
0.82218999 0.28737 -1.6532
0.82796001 0.28797999 -1.6567
0.79995 0.29212001 -1.6704
0.80466998 0.29245001 -1.6723
0.82257998 0.29023001 -1.6596
0.82527 0.28996 -1.658
0.86901999 0.28571001 -1.6337
0.81515998 0.29183 -1.6591001
0.83332998 0.29076001 -1.653
0.84508002 0.28992 -1.6482
0.84617001 0.28918999 -1.6441
0.84884 0.28891 -1.6424
0.85096997 0.28847 -1.64
0.85363001 0.28819001 -1.6382999
0.82950997 0.29341999 -1.6584001
0.84565002 0.29067999 -1.6429
0.84779 0.29025 -1.6404999
0.85044003 0.28996 -1.6389
0.86425 0.28968 -1.6373
0.8653 0.28895 -1.6331
0.86794001 0.28865999 -1.6315
0.82681 0.29538 -1.6597
0.82950997 0.2951 -1.6581
0.83168 0.29466 -1.6557
0.83437002 0.29438001 -1.6540999
0.84512001 0.2922 -1.6418
0.84779 0.29190999 -1.6402
0.85044003 0.29161999 -1.6386
0.86425 0.29133999 -1.637
0.82257998 0.29688001 -1.6584001
0.82578999 0.29674 -1.6576999
0.82950997 0.29675999 -1.6578
0.83712 0.29471001 -1.6463
0.83978999 0.29442999 -1.6447001
0.84193999 0.29398999 -1.6423
0.87111998 0.29179999 -1.6301
0.80808002 0.29962 -1.6643
0.82257998 0.29850999 -1.6581
0.82681 0.29868001 -1.6591001
0.84083998 0.29635 -1.6461
0.84350997 0.29606 -1.6445
0.80789 0.30232 -1.6698
0.82578999 0.30002001 -1.6571
0.84779 0.29679999 -1.6393
0.8531 0.29620999 -1.6361001
0.8204 0.30225 -1.66
0.82309002 0.30195999 -1.6584001
0.82527 0.30151999 -1.656
0.82744998 0.30107999 -1.6535
0.84241003 0.30008 -1.648
0.86690998 0.29756001 -1.6342
0.81397998 0.30418 -1.6611
0.81260997 0.30265 -1.6528
0.82898998 0.30320001 -1.6558
0.84775001 0.30114001 -1.6445
0.85042 0.30083999 -1.6429
0.80857998 0.30641001 -1.6639
0.81178999 0.30627999 -1.6632
0.81397998 0.30583999 -1.6608
0.81414002 0.30476999 -1.655
0.81325001 0.30339 -1.6475
0.82002002 0.30434999 -1.6526999
0.82578999 0.30498999 -1.6562001
0.82898998 0.30485001 -1.6555001
0.83168 0.30456001 -1.6539
0.83385003 0.30410999 -1.6514
0.83653003 0.30381 -1.6497999
0.83973002 0.30366999 -1.6490999
0.85042 0.30248001 -1.6426001
0.81009001 0.30856001 -1.6662
0.81128001 0.30779999 -1.6619999
0.81195003 0.30688 -1.6571
0.81362998 0.30627999 -1.6538
0.81325001 0.30504999 -1.6472
0.82309002 0.30695 -1.6575
0.82578999 0.30666 -1.6559
0.82744998 0.30605 -1.6526
0.82858002 0.30529001 -1.6485
0.82969999 0.30452999 -1.6444
0.83236998 0.30423 -1.6428
0.83608001 0.30425 -1.6429
0.84293002 0.30519 -1.648
0.84828001 0.30458999 -1.6447001
0.85360998 0.30399001 -1.6415
0.80435997 0.3096 -1.6623
0.80756998 0.30947 -1.6616
0.81027001 0.30917999 -1.66
0.81296998 0.30889001 -1.6585
0.81566 0.30860001 -1.6569
0.81989002 0.30878001 -1.6579
0.81796998 0.30706999 -1.6487
0.82270998 0.30741 -1.6505001
0.82744998 0.30774 -1.6523
0.82703 0.30651 -1.6457
0.83126003 0.30667999 -1.6466
0.83184999 0.30576 -1.6416
0.83660001 0.30609 -1.6434
0.84293002 0.30688 -1.6477
0.84560001 0.30658001 -1.646
0.84670001 0.30581 -1.6418999
0.84937 0.30551001 -1.6403
0.84938997 0.30443001 -1.6345
0.85628003 0.30537 -1.6395
0.80435997 0.31130999 -1.6619999
0.80857998 0.31150001 -1.663
0.80825001 0.31025001 -1.6562999
0.81449002 0.31107 -1.6607
0.81821001 0.31108999 -1.6608
0.82090998 0.31079999 -1.6593
0.81643999 0.30829 -1.6459
0.81910998 0.308 -1.6443
0.82538998 0.30881 -1.6486
0.83116001 0.30945 -1.6521
0.83660001 0.30777001 -1.6431
0.84293002 0.30857 -1.6473
0.84298003 0.30748001 -1.6415
0.84723002 0.30765 -1.6424
0.84937 0.30719 -1.64
0.85044003 0.30642 -1.6359
0.85469002 0.30658001 -1.6367
0.80637997 0.31365001 -1.6651
0.80857998 0.3132 -1.6627001
0.81027001 0.31259 -1.6594
0.81397998 0.31261 -1.6595
0.81668001 0.31231999 -1.658
0.82411999 0.31235999 -1.6582
0.81962001 0.30983999 -1.6447999
0.82590002 0.31066 -1.6490999
0.82858002 0.31036001 -1.6476001
0.83126003 0.31005999 -1.646
0.83600998 0.31039 -1.6477
0.83348 0.30851001 -1.6377
0.84083998 0.30963001 -1.6437
0.84456003 0.30963999 -1.6437
0.84723002 0.30932999 -1.6421
0.86317998 0.30748999 -1.6323
0.86583 0.30717999 -1.6307
0.80366999 0.31560001 -1.6663001
0.80587 0.31514001 -1.6639
0.80756998 0.31452999 -1.6605999
0.81230003 0.31488001 -1.6625
0.82754999 0.31167001 -1.6456
0.82867002 0.31088999 -1.6415
0.83600998 0.31202 -1.6474
0.80587 0.31671 -1.6636
0.80655998 0.31577 -1.6586
0.80874997 0.31531 -1.6562999
0.80891001 0.31421 -1.6505001
0.81718999 0.31568 -1.6582
0.82090998 0.31569999 -1.6583
0.82361001 0.3154 -1.6568
0.82692999 0.31415999 -1.6502
0.83228999 0.31356001 -1.647
0.83763999 0.31294999 -1.6438
0.84298003 0.31233001 -1.6406
0.84672999 0.31123999 -1.6349
0.80926001 0.31705001 -1.6568
0.80891001 0.31578001 -1.6502
0.81260997 0.31580999 -1.6503
0.81989002 0.31696001 -1.6562999
0.82207 0.31650001 -1.6539
0.82527 0.31636 -1.6532
0.82692999 0.31573001 -1.6499
0.83219999 0.31623 -1.6525
0.84560001 0.31470001 -1.6445
0.84779 0.31312001 -1.6363
0.80637997 0.32010001 -1.6638
0.80874997 0.31852001 -1.6556
0.81397998 0.31904 -1.6583
0.81209999 0.31727001 -1.6490999
0.81937999 0.31843001 -1.6552
0.82796001 0.31768 -1.6513
0.83973002 0.31678 -1.6466
0.84241003 0.31647 -1.645
0.84508002 0.31615999 -1.6434
0.80487001 0.32124999 -1.661
0.80926001 0.32032001 -1.6562001
0.81094003 0.3197 -1.6529
0.81209999 0.31889999 -1.6488
0.81325001 0.31810999 -1.6447001
0.81643999 0.31797001 -1.6440001
0.82014 0.31799999 -1.6441
0.82590002 0.31867 -1.6476001
0.82960999 0.31869 -1.6477
0.83705002 0.31872001 -1.6479
0.83816999 0.31792 -1.6438
0.84241003 0.31810001 -1.6447001
0.84508002 0.31779 -1.6431
0.85788 0.31606001 -1.6341
0.86264998 0.31525999 -1.63
0.8653 0.31494001 -1.6283
0.86901999 0.31494001 -1.6283
0.81077999 0.32247001 -1.6584001
0.81246001 0.32183999 -1.6551
0.81718999 0.3222 -1.6569999
0.81734002 0.32106999 -1.6512001
0.81234002 0.31830999 -1.637
0.81449002 0.31784001 -1.6345
0.81765997 0.3177 -1.6338
0.82858002 0.32001001 -1.6457
0.83705002 0.32036999 -1.6476001
0.83973002 0.32006001 -1.646
0.84241003 0.31974 -1.6443
0.84403002 0.31911001 -1.6411
0.85042 0.3188 -1.6395
0.85575002 0.31817001 -1.6362
0.85788 0.31769001 -1.6338
0.85947001 0.31705001 -1.6305
0.86264998 0.31689 -1.6296999
0.8653 0.31657001 -1.628
0.86956 0.31672999 -1.6289001
0.80857998 0.32464001 -1.6605
0.81178999 0.32449999 -1.6597
0.81195003 0.32337001 -1.654
0.81209999 0.32224 -1.6482
0.81478 0.32192999 -1.6466
0.81593001 0.32113001 -1.6425
0.81654 0.32016999 -1.6375999
0.81765997 0.31937 -1.6335
0.82238001 0.31972 -1.6353
0.83280998 0.32187 -1.6463
0.83653003 0.32189 -1.6464
0.84456003 0.32095 -1.6416
0.85042 0.32047999 -1.6392
0.80637997 0.32690001 -1.6625
0.80908 0.32659999 -1.661
0.81077999 0.32596001 -1.6576999
0.80941999 0.32431999 -1.6494
0.81057 0.32352 -1.6453
0.81325001 0.32321 -1.6437
0.82104999 0.32455999 -1.6506
0.82116002 0.32343 -1.6447999
0.82075 0.32212999 -1.6382
0.82651001 0.32280999 -1.6417
0.83385003 0.32398 -1.6476001
0.83548999 0.32334 -1.6444
0.83660001 0.32253 -1.6403
0.86317998 0.32047999 -1.6298
0.80958998 0.32846001 -1.6615
0.80724001 0.32648 -1.6514
0.81145 0.32666999 -1.6524
0.81260997 0.32585999 -1.6483001
0.81528997 0.32556 -1.6468
0.82002002 0.32591 -1.6486
0.82218999 0.32543999 -1.6461999
0.82332999 0.32462999 -1.6421
0.82651001 0.32448 -1.6413
0.83073997 0.32466 -1.6423
0.83497 0.32484999 -1.6432
0.83660001 0.3242 -1.6399
0.84188002 0.32471001 -1.6425
0.84560001 0.32472 -1.6426001
0.84828001 0.32440001 -1.6409
0.85042 0.32392001 -1.6385
0.85892999 0.32196999 -1.6286
0.86264998 0.32196999 -1.6287
0.80738002 0.33048001 -1.6636
0.81009001 0.33017001 -1.6619999
0.80825001 0.32835001 -1.6528
0.81296998 0.32870999 -1.6547
0.81515998 0.32822999 -1.6523
0.81734002 0.32775 -1.6499
0.81695002 0.32644001 -1.6432
0.81756997 0.32545999 -1.6382999
0.82024002 0.32515001 -1.6367
0.82858002 0.32666999 -1.6444
0.83653003 0.32686999 -1.6454
0.83712 0.32589 -1.6404999
0.83875 0.32523999 -1.6372
0.84403002 0.32574999 -1.6398
0.85097998 0.3233 -1.6275001
0.85574001 0.32249001 -1.6234
0.86264998 0.32348999 -1.6284
0.81059998 0.33194 -1.6625
0.80926001 0.33028001 -1.6542
0.81145 0.32980001 -1.6518
0.81107998 0.32848001 -1.6452
0.81325001 0.32800001 -1.6428
0.81643999 0.32786 -1.6421
0.82424998 0.32922 -1.6489
0.82230002 0.3274 -1.6398
0.83064997 0.32892999 -1.6474
0.83718002 0.32631999 -1.6344
0.84245998 0.32683 -1.6368999
0.85363001 0.32570001 -1.6313
0.85680997 0.32554001 -1.6305
0.85892999 0.32505 -1.628
0.81178999 0.33287001 -1.6581
0.81449002 0.33254999 -1.6565
0.81718999 0.33223999 -1.655
0.81325001 0.32973 -1.6424
0.81388003 0.32874 -1.6375
0.81705999 0.32859001 -1.6368001
0.82075 0.32861999 -1.6368999
0.82910001 0.33015001 -1.6446
0.83487999 0.33085001 -1.648
0.83757001 0.33052 -1.6464
0.84293002 0.32988 -1.6432
0.81397998 0.33410999 -1.6553
0.81821001 0.33431 -1.6562999
0.81478 0.33195001 -1.6446
0.81489998 0.33078 -1.6389
0.81603003 0.32995999 -1.6348
0.82075 0.33032 -1.6366
0.82703 0.33118999 -1.6409
0.83228999 0.33171999 -1.6435
0.83497 0.33138999 -1.6418999
0.83660001 0.33072999 -1.6386
0.84241003 0.33142 -1.642
0.84403002 0.33076 -1.6388
0.84828001 0.33094001 -1.6396
0.81331003 0.33680999 -1.6599
0.81145 0.33495 -1.6508
0.81616998 0.33532 -1.6526
0.81478 0.33363 -1.6443
0.81643999 0.33298001 -1.641
0.8186 0.33249 -1.6386
0.82642001 0.33386999 -1.6454999
0.83168 0.3344 -1.6481
0.83437002 0.33408001 -1.6465
0.83653003 0.33359 -1.6441
0.83608001 0.33223999 -1.6374
0.84560001 0.33295 -1.6409
0.84775001 0.33245 -1.6385
0.84988999 0.33195999 -1.636
0.85255998 0.33162999 -1.6344
0.80958998 0.33844 -1.6595
0.81027001 0.33744001 -1.6545
0.81145 0.33660001 -1.6504
0.81312001 0.33594 -1.6472
0.81427002 0.33511001 -1.6431
0.81746 0.33496001 -1.6424
0.82270998 0.3355 -1.645
0.82692999 0.33568999 -1.646
0.83168 0.33605 -1.6477
0.83280998 0.33522001 -1.6436
0.83288997 0.33403999 -1.6379
0.83660001 0.33405 -1.6379
0.84083998 0.33423999 -1.6389
0.84350997 0.33390999 -1.6372
0.84779 0.33291 -1.6324
0.85149997 0.33292001 -1.6324
0.85469002 0.33276001 -1.6316
0.85841 0.33276999 -1.6316
0.81059998 0.34039 -1.6608
0.80926001 0.33868 -1.6525
0.81042999 0.33785 -1.6483999
0.81209999 0.33717999 -1.6452
0.81682003 0.33756 -1.647
0.82002002 0.33741 -1.6463
0.82322001 0.33726001 -1.6454999
0.82642001 0.33711001 -1.6447999
0.82910001 0.33678001 -1.6432
0.83178002 0.33645999 -1.6416
0.83445001 0.33612999 -1.6401
0.83920997 0.33649001 -1.6418
0.84293002 0.33649999 -1.6418999
0.85149997 0.33450001 -1.6321
0.85469002 0.33432999 -1.6313
0.81042999 0.33945 -1.6481
0.81616998 0.34017 -1.6516
0.81835997 0.33967 -1.6492
0.82361001 0.34022 -1.6518
0.82578999 0.33972001 -1.6494
0.82848001 0.33939999 -1.6478
0.83012998 0.33871999 -1.6446
0.83228999 0.33822 -1.6422
0.84025002 0.33842999 -1.6431
0.84293002 0.33809999 -1.6415
0.84193999 0.33656001 -1.6341
0.80874997 0.34174001 -1.651
0.80789 0.34020001 -1.6435
0.81057 0.33987999 -1.642
0.81375998 0.33972999 -1.6413
0.82104999 0.34097999 -1.6473
0.82218999 0.34013 -1.6432
0.82796001 0.34085 -1.6467
0.82754999 0.33948001 -1.6401
0.83021998 0.33915001 -1.6385
0.83288997 0.33882001 -1.6368999
0.83816999 0.33936 -1.6395
0.84298003 0.33851999 -1.6354001
0.84565002 0.33818999 -1.6338
0.84884 0.33803001 -1.633
0.87958002 0.3348 -1.6174001
0.80135 0.34332001 -1.6504
0.80453998 0.34316999 -1.6497
0.81178999 0.34443 -1.6557
0.81145 0.34305999 -1.6490999
0.81515998 0.34308001 -1.6492
0.81937999 0.34327999 -1.6502
0.82207 0.34296 -1.6486
0.81808001 0.34035999 -1.6361001
0.82178003 0.34038001 -1.6363
0.82599998 0.34057999 -1.6372
0.82969999 0.34060001 -1.6373
0.83236998 0.34027001 -1.6357
0.84083998 0.34064999 -1.6375
0.84193999 0.33978999 -1.6334
0.84407002 0.33928999 -1.631
0.84830999 0.33947 -1.6319
0.86053002 0.33864 -1.6279
0.80185002 0.34514001 -1.6509
0.80756998 0.34588 -1.6544
0.81128001 0.34591001 -1.6545
0.81449002 0.34575999 -1.6538
0.81668001 0.34525999 -1.6514
0.82207 0.34461001 -1.6483001
0.81962001 0.34252 -1.6382999
0.82384002 0.34272 -1.6393
0.82858002 0.34309 -1.641
0.83280998 0.34329 -1.642
0.83600998 0.34312999 -1.6411999
0.83608001 0.34191999 -1.6354001
0.83875 0.34158999 -1.6339
0.83932 0.34055001 -1.6289001
0.84302002 0.34057 -1.6289999
0.84779 0.34093001 -1.6307
0.85894001 0.34095001 -1.6308
0.87111998 0.33888999 -1.6209
0.88801998 0.33713999 -1.6126
0.81279999 0.34812 -1.6567
0.81195003 0.34654999 -1.6493
0.81515998 0.34639999 -1.6485
0.81375998 0.34466001 -1.6403
0.81849003 0.34503999 -1.6421
0.82014 0.34435001 -1.6388
0.82486999 0.34472999 -1.6406
0.82754999 0.34439999 -1.6390001
0.83021998 0.34406999 -1.6374
0.83548999 0.34461001 -1.64
0.83451998 0.34305 -1.6325999
0.84083998 0.34393999 -1.6368001
0.84140998 0.34290001 -1.6319
0.84565002 0.34309 -1.6328
0.84830999 0.34275001 -1.6312
0.85202998 0.34276 -1.6312
0.85734999 0.34208 -1.628
0.86000001 0.34173 -1.6263
0.86211997 0.34121999 -1.6239001
0.86583 0.34121999 -1.6239001
0.80637997 0.35012999 -1.6578
0.80908 0.34981 -1.6562001
0.81077999 0.34911999 -1.653
0.81397998 0.34897 -1.6523
0.81668001 0.34865001 -1.6507
0.81937999 0.34832001 -1.6492
0.81849003 0.34674001 -1.6417
0.81910998 0.3457 -1.6368001
0.82126999 0.34518999 -1.6344
0.82599998 0.34557 -1.6362
0.83073997 0.34593999 -1.6379
0.83600998 0.34649 -1.6404999
0.83503997 0.34492001 -1.6331
0.84083998 0.34564 -1.6365
0.84298003 0.34513 -1.6339999
0.84565002 0.34479001 -1.6324
0.84937 0.3448 -1.6325001
0.85149997 0.34428 -1.63
0.85575002 0.34323999 -1.6251
0.85892999 0.34307 -1.6243
0.86050999 0.34237999 -1.6210001
0.86475998 0.34255999 -1.6219
0.86848003 0.34255999 -1.6219
0.87111998 0.34220999 -1.6202
0.80366999 0.35213 -1.659
0.80637997 0.35179999 -1.6574
0.80857998 0.35128999 -1.655
0.81027001 0.35060999 -1.6518
0.81246001 0.35010001 -1.6494
0.81668001 0.35030001 -1.6504
0.81734002 0.34926 -1.6454
0.81950998 0.34875 -1.643
0.82116002 0.34806001 -1.6398
0.82332999 0.34755 -1.6374
0.82754999 0.34775001 -1.6382999
0.82867002 0.34687999 -1.6342
0.83445001 0.34761 -1.6377
0.83712 0.34727001 -1.6361001
0.83978999 0.34693 -1.6345
0.84298003 0.34676999 -1.6337
0.84407002 0.3459 -1.6296
0.84884 0.34626001 -1.6313
0.85044003 0.34556001 -1.628
0.85416001 0.34557 -1.6281
0.85680997 0.34523001 -1.6264
0.85947001 0.34488001 -1.6248
0.86211997 0.34452999 -1.6232001
0.87111998 0.34384 -1.6199
0.87431002 0.34366 -1.6191
0.80908 0.35304999 -1.6555001
0.80724001 0.3511 -1.6464
0.80484998 0.34897 -1.6364
0.81209999 0.35025999 -1.6425
0.81528997 0.35010999 -1.6417
0.81900001 0.35012999 -1.6418999
0.82218999 0.34998 -1.6411
0.82280999 0.34893 -1.6362
0.82445002 0.34823 -1.633
0.82710999 0.3479 -1.6314
0.83341002 0.34880999 -1.6357
0.83973002 0.34972 -1.6399
0.83456999 0.34671 -1.6258
0.84508002 0.34902999 -1.6367
0.85096997 0.34729001 -1.6285
0.85363001 0.34694001 -1.6269
0.85680997 0.34678 -1.6260999
0.87165999 0.34555 -1.6204
0.87431002 0.3452 -1.6187
0.79663998 0.35278001 -1.6464
0.79833001 0.35209 -1.6432
0.80151999 0.35194001 -1.6425
0.80470997 0.35179001 -1.6418
0.80434 0.35038 -1.6352
0.81414002 0.35257 -1.6454999
0.81887001 0.35295999 -1.6473
0.82053 0.35225999 -1.6440001
0.82527 0.35264999 -1.6458
0.82796001 0.35231 -1.6443
0.83219999 0.35251001 -1.6452
0.83487999 0.35216999 -1.6436
0.83757001 0.35183001 -1.642
0.83816999 0.35077 -1.6371
0.84031999 0.35025001 -1.6346
0.84456003 0.35044 -1.6355
0.79933 0.35411 -1.6445
0.80352998 0.35433 -1.6454999
0.80976999 0.35527 -1.6499
0.81668001 0.35514 -1.6493
0.8204 0.35517001 -1.6494
0.82207 0.35447001 -1.6461999
0.82270998 0.35341001 -1.6413
0.82538998 0.35306999 -1.6397001
0.82960999 0.35326999 -1.6406
0.83332998 0.35328999 -1.6407
0.83497 0.35258999 -1.6375
0.83763999 0.35225001 -1.6359
0.84083998 0.35207999 -1.6351
0.84456003 0.35210001 -1.6352
0.84670001 0.35157001 -1.6327
0.84779 0.35069001 -1.6286
0.85202998 0.35088 -1.6295
0.85469002 0.35053 -1.6279
0.80352998 0.35598001 -1.6452
0.81128001 0.35747001 -1.6521
0.81601 0.35786 -1.6539
0.81770003 0.35716 -1.6507
0.81937999 0.35646001 -1.6474
0.82104999 0.35576001 -1.6442
0.82322001 0.35523 -1.6418
0.82848001 0.3558 -1.6444
0.83064997 0.35528001 -1.642
0.83073997 0.35403001 -1.6362
0.83133 0.35295999 -1.6313
0.83556002 0.35315999 -1.6322
0.84031999 0.35354 -1.6339
0.84350997 0.35337001 -1.6332
0.84565002 0.35284999 -1.6307
0.84779 0.35231999 -1.6283
0.85044003 0.35196999 -1.6267
0.8531 0.35161999 -1.625
0.80926001 0.35834 -1.6483999
0.81195003 0.35800999 -1.6468
0.81312001 0.35712001 -1.6427
0.81682003 0.35714999 -1.6429
0.82053 0.35716999 -1.643
0.82218999 0.35646999 -1.6397001
0.82692999 0.35685 -1.6415
0.82858002 0.35615 -1.6382999
0.82814997 0.35471001 -1.6317
0.82874 0.35363999 -1.6267
0.83296001 0.35383999 -1.6277
0.84617001 0.35461 -1.6312
0.84619999 0.35336 -1.6253999
0.84938997 0.35319 -1.6247
0.85363001 0.35337999 -1.6255
0.81260997 0.35855001 -1.6415
0.81734002 0.35894999 -1.6433001
0.81849003 0.35806 -1.6393
0.82116002 0.35771999 -1.6377
0.82436001 0.35756001 -1.637
0.82651001 0.35703 -1.6346
0.82867002 0.3565 -1.6322
0.83184999 0.35633999 -1.6314
0.83243001 0.35527 -1.6265
0.84884 0.35587001 -1.6292
0.81718999 0.36188 -1.6487
0.81784999 0.3608 -1.6438
0.81849003 0.35971999 -1.6389
0.82322001 0.36011001 -1.6407
0.82590002 0.35977 -1.6391
0.82858002 0.35942 -1.6375
0.82867002 0.35815999 -1.6318001
0.83445001 0.35890999 -1.6352
0.83712 0.35856 -1.6336
0.83978999 0.35821 -1.632
0.84088999 0.35731 -1.6279
0.86000001 0.35628 -1.6232001
0.86317998 0.35609999 -1.6224
0.86583 0.35574001 -1.6208
0.80202001 0.36195999 -1.6411999
0.81397998 0.3637 -1.6490999
0.81668001 0.36335999 -1.6475
0.81734002 0.36227 -1.6426001
0.81950998 0.36173999 -1.6402
0.82372999 0.36195001 -1.6411999
0.82590002 0.36142001 -1.6388
0.82599998 0.36015001 -1.633
0.82919002 0.35999 -1.6323
0.83288997 0.36001 -1.6324
0.83608001 0.35984001 -1.6316
0.83823001 0.35931 -1.6292
0.84088999 0.35894999 -1.6276
0.84617001 0.35951999 -1.6301
0.84884 0.35916001 -1.6285
0.85202998 0.35899001 -1.6277
0.85522002 0.35881001 -1.6269
0.85788 0.35846001 -1.6253
0.80202001 0.36359999 -1.6409
0.81027001 0.36532 -1.6486
0.81195003 0.3646 -1.6454
0.81821001 0.36556 -1.6497
0.81937999 0.36465999 -1.6456
0.82527 0.36414999 -1.6433001
0.82744998 0.36361 -1.6409
0.83012998 0.36327001 -1.6393
0.83556002 0.36129001 -1.6303999
0.83770001 0.36074999 -1.628
0.84140998 0.36076999 -1.628
0.84460002 0.36059001 -1.6273
0.84830999 0.36061001 -1.6273
0.85044003 0.36006001 -1.6249
0.85363001 0.35989001 -1.6241
0.88221002 0.35698 -1.6109999
0.80992001 0.3655 -1.6416
0.81821001 0.36722001 -1.6493
0.81835997 0.36592999 -1.6436
0.82104999 0.36559001 -1.642
0.82476002 0.36561 -1.6421
0.82796001 0.36544999 -1.6414
0.83116001 0.36528 -1.6406
0.83280998 0.36456001 -1.6374
0.83548999 0.3642 -1.6358
0.84025002 0.36458999 -1.6375
0.84031999 0.36331001 -1.6318001
0.84298003 0.36295 -1.6302
0.84302002 0.36166999 -1.6244
0.84884 0.36241999 -1.6278
0.84886003 0.36114001 -1.622
0.85257 0.36115 -1.6221
0.85680997 0.36133999 -1.6229
0.85947001 0.36098 -1.6213
0.87431002 0.35969999 -1.6156
0.87695003 0.35933 -1.6138999
0.80672997 0.36732 -1.642
0.81145 0.36772999 -1.6438
0.81566 0.36794999 -1.6447999
0.81835997 0.36759999 -1.6432
0.81695002 0.36575001 -1.6349
0.82476002 0.36726999 -1.6417
0.82796001 0.36711001 -1.641
0.83168 0.36713001 -1.6411
0.83332998 0.3664 -1.6378
0.83757001 0.36660999 -1.6388
0.84025002 0.36625001 -1.6372
0.84083998 0.36515 -1.6322
0.84140998 0.36405 -1.6273
0.84565002 0.36425 -1.6282001
0.85095 0.36480999 -1.6307
0.85360998 0.36445001 -1.6291
0.85628003 0.36409 -1.6275001
0.81770003 0.37035 -1.6477
0.81937999 0.36962 -1.6445
0.81796998 0.36776 -1.6362
0.82424998 0.36873001 -1.6404999
0.82590002 0.368 -1.6373
0.83064997 0.36840001 -1.6391
0.83228999 0.36767 -1.6358
0.83653003 0.36787 -1.6367
0.84508002 0.36697999 -1.6328
0.8653 0.36368999 -1.6181
0.86794001 0.36333001 -1.6165
0.82207 0.37086999 -1.6426001
0.82322001 0.36995 -1.6385
0.82486999 0.36921999 -1.6353
0.82858002 0.36923999 -1.6354001
0.82919002 0.36813 -1.6303999
0.83184999 0.36776999 -1.6289001
0.83608001 0.36798 -1.6298
0.84031999 0.36818001 -1.6307
0.84245998 0.36763 -1.6283
0.84670001 0.36783001 -1.6291
0.84779 0.36691001 -1.6251
0.85096997 0.36673 -1.6243
0.85469002 0.36673999 -1.6243
0.85894001 0.36693001 -1.6252
0.86159998 0.36657 -1.6235
0.86475998 0.36508 -1.617
0.86633003 0.36434001 -1.6137
0.81465 0.37243 -1.642
0.81478 0.37112001 -1.6362
0.82257998 0.37266999 -1.6431
0.82527 0.37231001 -1.6415
0.82796001 0.37196001 -1.6399
0.82910001 0.37103 -1.6358
0.83021998 0.37011001 -1.6318001
0.83236998 0.36956 -1.6293
0.83712 0.36995 -1.6311001
0.84779 0.36849999 -1.6247
0.85360998 0.36927 -1.628
0.85522002 0.36851999 -1.6248
0.85894001 0.36853001 -1.6248
0.86000001 0.36759999 -1.6207
0.86475998 0.36667001 -1.6166
0.80874997 0.37458 -1.6439
0.80941999 0.37345999 -1.6390001
0.81414002 0.37388 -1.6408
0.81734002 0.37371001 -1.6401
0.82476002 0.37376001 -1.6403
0.82744998 0.37340999 -1.6387
0.82858002 0.37248001 -1.6346
0.83437002 0.37325999 -1.6381
0.83705002 0.37290001 -1.6365
0.83973002 0.37253001 -1.6349
0.83823001 0.37064999 -1.6266
0.84350997 0.37123999 -1.6292
0.84828001 0.37163001 -1.6309
0.84988999 0.37088001 -1.6276
0.85308999 0.3707 -1.6267999
0.85628003 0.37052 -1.6260999
0.85894001 0.37015 -1.6244
0.86159998 0.36978 -1.6228
0.86734998 0.36660001 -1.6088001
0.88485003 0.36621001 -1.6071
0.81465 0.37575001 -1.6411999
0.81835997 0.37577 -1.6413
0.82104999 0.37542 -1.6398
0.82372999 0.37505999 -1.6382
0.82332999 0.37355 -1.6316
0.82547998 0.373 -1.6292
0.83332998 0.37455001 -1.636
0.83600998 0.37419 -1.6344
0.83816999 0.37362999 -1.632
0.83875 0.37250999 -1.6271
0.84193999 0.37233001 -1.6263
0.84723002 0.37292001 -1.6289001
0.84884 0.37217 -1.6256
0.84833002 0.37066001 -1.619
0.85097998 0.37029001 -1.6174001
0.85469002 0.37029999 -1.6174001
0.86106998 0.37125 -1.6216
0.86690998 0.37068999 -1.6192
0.86848003 0.36994001 -1.6159
0.87111998 0.36956 -1.6142
0.81397998 0.37865001 -1.6457
0.81718999 0.37847999 -1.645
0.81989002 0.37812001 -1.6435
0.82207 0.37757 -1.6411
0.82270998 0.37643999 -1.6361001
0.82384002 0.37551001 -1.6321
0.82651001 0.37515 -1.6305
0.82814997 0.37439999 -1.6273
0.83236998 0.37461001 -1.6282001
0.83660001 0.37481999 -1.6291
0.83560997 0.37312001 -1.6217
0.83827001 0.37275001 -1.6201
0.83828998 0.37143001 -1.6144
0.85096997 0.37336001 -1.6228
0.85363001 0.37299001 -1.6210999
0.85628003 0.37261999 -1.6195
0.85947001 0.37243 -1.6187
0.86211997 0.37206 -1.6171
0.81950998 0.37830001 -1.6365
0.82218999 0.37794 -1.6349
0.82436001 0.37739 -1.6325001
0.82651001 0.37683001 -1.6301
0.82814997 0.37608001 -1.6269
0.83705002 0.37803 -1.6353
0.83973002 0.37766001 -1.6337
0.84031999 0.37652001 -1.6288
0.84350997 0.37634 -1.628
0.84723002 0.37636 -1.6281
0.85202998 0.37542 -1.624
0.85575002 0.37542999 -1.6241
0.85841 0.37505999 -1.6224
0.82372999 0.38010001 -1.6371
0.82384002 0.37876999 -1.6313
0.82651001 0.3784 -1.6298
0.83757001 0.37979999 -1.6358
0.83920997 0.37904 -1.6325001
0.83927 0.37771001 -1.6267999
0.84456003 0.37830001 -1.6293
0.84828001 0.37830999 -1.6294
0.85947001 0.37566999 -1.618
0.87220001 0.37491 -1.6147
0.82257998 0.38264 -1.6408
0.82218999 0.38111001 -1.6342
0.82436001 0.38055 -1.6318001
0.82754999 0.38036999 -1.6311001
0.82969999 0.37981001 -1.6286
0.83184999 0.37924999 -1.6262
0.83191001 0.37790999 -1.6205
0.83666003 0.37832001 -1.6222
0.84508002 0.38008001 -1.6298
0.84407002 0.37834999 -1.6224
0.84672999 0.37797999 -1.6208
0.84938997 0.37760001 -1.6192
0.85363001 0.37779999 -1.62
0.85734999 0.37781 -1.6201
0.86901999 0.37667 -1.6152
0.87165999 0.37628999 -1.6135
0.81145 0.38417 -1.64
0.82578999 0.38409001 -1.6397001
0.82796001 0.38352001 -1.6373
0.83116001 0.38335001 -1.6365
0.82867002 0.38102999 -1.6266
0.83029002 0.38027 -1.6234
0.82982999 0.37873 -1.6168
0.83613998 0.37972 -1.6210001
0.84298003 0.38091001 -1.6260999
0.85469002 0.37979001 -1.6213
0.81312001 0.38503 -1.6364
0.82090998 0.38664001 -1.6432
0.82361001 0.38626999 -1.6417
0.82322001 0.38472 -1.6351
0.82590002 0.38435 -1.6335
0.82858002 0.38398001 -1.632
0.83280998 0.38420001 -1.6329
0.83288997 0.38284999 -1.6271
0.83243001 0.38130999 -1.6206
0.83613998 0.38132 -1.6207
0.84245998 0.38231999 -1.6249
0.84723002 0.38271999 -1.6266
0.84988999 0.38234001 -1.625
0.81601 0.38918999 -1.6468
0.81770003 0.38843 -1.6436
0.82090998 0.38826001 -1.6429
0.82361001 0.38789001 -1.6413
0.82014 0.38514999 -1.6296999
0.82280999 0.38477999 -1.6281
0.82547998 0.38440999 -1.6266
0.83228999 0.38562 -1.6317
0.83445001 0.38503999 -1.6293
0.83868998 0.38525999 -1.6302
0.84031999 0.38449001 -1.6269
0.84035999 0.38313001 -1.6212
0.84197003 0.38237 -1.6179
0.84461999 0.38198999 -1.6163
0.85149997 0.38317001 -1.6213
0.88321 0.37853 -1.6016999
0.88692999 0.37852001 -1.6016001
0.81601 0.3908 -1.6464
0.81871998 0.39043 -1.6449
0.83064997 0.38797 -1.6345
0.83385003 0.38780001 -1.6338
0.83600998 0.38722 -1.6314
0.83920997 0.38705 -1.6306
0.84293002 0.38705999 -1.6307
0.84560001 0.38668001 -1.6291
0.84828001 0.3863 -1.6275001
0.85042 0.38572001 -1.6251
0.82681 0.39087 -1.6398
0.82848001 0.3901 -1.6366
0.83487999 0.38973999 -1.6351
0.83341002 0.38778001 -1.6269
0.83348 0.38641 -1.6210999
0.83666003 0.38622999 -1.6204
0.8531 0.38551 -1.6173
0.85788 0.38591 -1.619
0.86159998 0.38591999 -1.619
0.82411999 0.39278001 -1.641
0.82578999 0.39201 -1.6378
0.82744998 0.39124 -1.6345
0.82910001 0.39046001 -1.6313
0.83228999 0.39028001 -1.6306
0.83133 0.38850999 -1.6232001
0.83608001 0.38892999 -1.6249
0.83666003 0.38776001 -1.62
0.84140998 0.38817 -1.6217
0.85097998 0.38624001 -1.6137
0.85308999 0.38565999 -1.6112
0.86159998 0.38744 -1.6187
0.82630002 0.39372 -1.6382999
0.82692999 0.39254001 -1.6332999
0.82858002 0.39177001 -1.6301
0.83126003 0.39139 -1.6285
0.83875 0.39004999 -1.623
0.84403002 0.39065999 -1.6255
0.84884 0.38969001 -1.6215
0.85149997 0.38931 -1.6199
0.85257 0.38832 -1.6158
0.85841 0.38912001 -1.6191
0.81835997 0.39498001 -1.6368001
0.82207 0.39500999 -1.6368999
0.82476002 0.39463001 -1.6354001
0.82642001 0.39385 -1.6322
0.82805997 0.39307001 -1.6289001
0.83073997 0.39269 -1.6273
0.83393002 0.39251 -1.6266
0.83660001 0.39212999 -1.625
0.84293002 0.39315 -1.6292
0.84403002 0.39216 -1.6252
0.84828001 0.39238 -1.626
0.85308999 0.39140001 -1.622
0.85363001 0.39021999 -1.6171
0.85788 0.39041999 -1.6179
0.81668001 0.39728999 -1.6397001
0.81580001 0.3955 -1.6323
0.81950998 0.39552999 -1.6324
0.82270998 0.39535001 -1.6317
0.82642001 0.39537999 -1.6318001
0.82805997 0.3946 -1.6285
0.83126003 0.39442 -1.6278
0.83445001 0.39423001 -1.6271
0.83451998 0.39285001 -1.6213
0.83770001 0.39265999 -1.6206
0.83932 0.39188001 -1.6173
0.85202998 0.39252001 -1.62
0.85469002 0.39212999 -1.6184
0.85734999 0.39173999 -1.6167001
0.85839999 0.39074999 -1.6127
0.81312001 0.39737999 -1.6335
0.82002002 0.39724001 -1.6329
0.82218999 0.39666 -1.6305
0.82538998 0.39647999 -1.6298
0.83012998 0.39691001 -1.6315
0.83280998 0.39651999 -1.6299
0.83497 0.39594001 -1.6275001
0.83556002 0.39475 -1.6226
0.83823001 0.39436001 -1.6210001
0.83983999 0.39357001 -1.6178
0.84670001 0.39478999 -1.6228
0.84937 0.3944 -1.6212
0.85202998 0.39401001 -1.6196001
0.85469002 0.39362001 -1.618
0.85734999 0.39322999 -1.6164
0.85947001 0.39263001 -1.6138999
0.86372 0.39284 -1.6148
0.87159997 0.39025 -1.6041
0.81734002 0.39908001 -1.6341
0.82898998 0.39936 -1.6352
0.83064997 0.39857 -1.632
0.83073997 0.39717001 -1.6263
0.83393002 0.39699 -1.6255
0.83556002 0.3962 -1.6223
0.83927 0.39622 -1.6223
0.83879 0.39462 -1.6158
0.84512001 0.39563999 -1.62
0.84937 0.39585999 -1.6209
0.85308999 0.39587 -1.6209
0.86106998 0.39467999 -1.6161
0.86425 0.39447999 -1.6153001
0.89850998 0.38922 -1.5937001
0.83168 0.40042001 -1.6332999
0.83126003 0.39881 -1.6267
0.83660001 0.39804 -1.6236
0.83875 0.39745 -1.6212
0.84088999 0.39686 -1.6188
0.84407002 0.39667001 -1.618
0.84726 0.39647999 -1.6172
0.86053002 0.39590999 -1.6149
0.86211997 0.39511001 -1.6116
0.86690998 0.39550999 -1.6133
0.88275999 0.39309001 -1.6034
0.81989002 0.40294999 -1.6375
0.83236998 0.39921001 -1.6223
0.83503997 0.39882001 -1.6208
0.83770001 0.39842999 -1.6192
0.84456003 0.39967 -1.6242
0.84828001 0.39967999 -1.6243
0.84830999 0.39827001 -1.6185
0.84886003 0.39706001 -1.6136
0.85363001 0.39748001 -1.6153001
0.83385003 0.40261999 -1.6302
0.83445001 0.40141001 -1.6253
0.83608001 0.40061 -1.6221
0.83718002 0.39961001 -1.618
0.84035999 0.39941999 -1.6172
0.84565002 0.40005001 -1.6198
0.84568 0.39862999 -1.6141
0.85255998 0.39987001 -1.6191
0.84991997 0.39743 -1.6092
0.85841 0.39927 -1.6166
0.86106998 0.39886999 -1.615
0.86425 0.39866999 -1.6142
0.83920997 0.40321001 -1.6267
0.83770001 0.40118 -1.6185
0.83983999 0.40057999 -1.6161
0.84407002 0.40079999 -1.617
0.84726 0.40061 -1.6162
0.85255998 0.40123001 -1.6187
0.85416001 0.40042001 -1.6155
0.86106998 0.40022999 -1.6147
0.82142001 0.40775001 -1.6390001
0.82411999 0.40737 -1.6375
0.82630002 0.40676999 -1.6351
0.82848001 0.40617001 -1.6327
0.82651001 0.40391999 -1.6236
0.83021998 0.40395001 -1.6237
0.83600998 0.40479001 -1.6271
0.83868998 0.40439999 -1.6255
0.84188002 0.40421 -1.6248
0.84298003 0.4032 -1.6207
0.84884 0.40261 -1.6183
0.85149997 0.40221 -1.6167001
0.82527 0.40781 -1.633
0.82692999 0.40700001 -1.6298
0.8229 0.40391001 -1.6174001
0.82867002 0.40476999 -1.6209
0.83497 0.40583 -1.6251
0.83763999 0.40542999 -1.6235
0.83927 0.40461999 -1.6203001
0.84828001 0.40527001 -1.6229
0.84884 0.40404999 -1.618
0.84727001 0.40200001 -1.6098
0.85044998 0.40180999 -1.609
0.85308999 0.4014 -1.6073999
0.85947001 0.40244001 -1.6115
0.82848001 0.40900999 -1.632
0.82960999 0.40799001 -1.6279
0.83126003 0.40718001 -1.6247
0.83497 0.40720999 -1.6247
0.83868998 0.40722001 -1.6248
0.83978999 0.40619999 -1.6208
0.84245998 0.40581 -1.6192
0.84828001 0.40665001 -1.6224999
0.85095 0.40625 -1.6209
0.85255998 0.40542999 -1.6177
0.85416001 0.40461999 -1.6144
0.85680997 0.40421 -1.6128
0.86000001 0.40401 -1.612
0.87165999 0.40279001 -1.6071
0.81388003 0.40731999 -1.6198
0.82848001 0.41029999 -1.6316
0.82805997 0.40865001 -1.6251
0.83126003 0.40847 -1.6243
0.83600998 0.40891001 -1.6260999
0.84135997 0.40810999 -1.6229
0.84245998 0.40709001 -1.6188
0.84512001 0.40669 -1.6173
0.85095 0.40753001 -1.6206
0.85096997 0.40608999 -1.6149
0.87165999 0.40406001 -1.6068
0.87377 0.40344 -1.6043
0.84193999 0.40812999 -1.6177
0.84460002 0.40773001 -1.6161
0.84830999 0.40775001 -1.6162
0.85096997 0.40733999 -1.6145999
0.85150999 0.40610999 -1.6097
0.85469002 0.40590999 -1.6089
0.81182998 0.40893 -1.6158
0.82168001 0.41148999 -1.6259
0.82436001 0.41108999 -1.6244
0.82910001 0.41154 -1.6260999
0.83178002 0.41113999 -1.6245
0.83600998 0.41137001 -1.6255
0.83973002 0.41139001 -1.6255
0.84241003 0.41099 -1.6239001
0.84245998 0.40954 -1.6181999
0.84302002 0.40830001 -1.6133
0.84779 0.40873 -1.615
0.85044003 0.40832999 -1.6134
0.85203999 0.40751001 -1.6102
0.85894001 0.40876001 -1.6151
0.87165999 0.40649 -1.6062
0.81950998 0.41332999 -1.628
0.82848001 0.41402 -1.6307
0.84508002 0.41181999 -1.622
0.84775001 0.41141999 -1.6204
0.84937 0.41058999 -1.6172
0.85363001 0.40935999 -1.6123
0.85894001 0.40999001 -1.6148
0.87639999 0.40667999 -1.6018
0.82578999 0.41575 -1.6319
0.83116001 0.41495001 -1.6288
0.83437002 0.41475999 -1.628
0.83705002 0.41435999 -1.6265
0.83613998 0.41102999 -1.6134
0.83617002 0.40957999 -1.6077
0.84039003 0.40979999 -1.6086
0.84619999 0.41066 -1.6119
0.85360998 0.41214001 -1.6177
0.85628003 0.41172999 -1.6161
0.85894001 0.41132 -1.6145
0.88011998 0.40798 -1.6014
0.88275999 0.40755999 -1.5998
0.83168 0.41646001 -1.6293
0.83705002 0.41565999 -1.6260999
0.83712 0.41418999 -1.6204
0.83718002 0.41273001 -1.6147
0.83879 0.41191 -1.6115
0.84723002 0.41382 -1.619
0.83757001 0.41707 -1.6267
0.83920997 0.41624001 -1.6234
0.84188002 0.41582999 -1.6217999
0.85095 0.41503 -1.6187
0.85628003 0.41420999 -1.6155
0.85894001 0.41378999 -1.6138999
0.86106998 0.41317001 -1.6114
0.86425 0.41295999 -1.6106
0.86583 0.41213 -1.6073999
0.84025002 0.41788 -1.6248
0.84293002 0.41747001 -1.6232001
0.84508002 0.41685 -1.6208
0.84884 0.41539001 -1.6151
0.85255998 0.41541001 -1.6151
0.85522002 0.41499001 -1.6135
0.85788 0.41457999 -1.6119
0.86956 0.41332999 -1.6071
0.87220001 0.41291001 -1.6054
0.87484998 0.41249001 -1.6038001
0.87748998 0.41205999 -1.6021
0.88011998 0.41163999 -1.6005
0.8186 0.41771999 -1.619
0.83973002 0.41891 -1.6236
0.84188002 0.41828999 -1.6212
0.84350997 0.41745001 -1.618
0.84355003 0.41598001 -1.6123
0.84672999 0.41578001 -1.6115
0.85044003 0.41578999 -1.6115
0.85416001 0.41580001 -1.6116
0.85734999 0.4156 -1.6108
0.87220001 0.41413999 -1.6051
0.87484998 0.41371 -1.6035
0.87748998 0.41328999 -1.6018
0.82116002 0.42002001 -1.6228
0.83816999 0.41949001 -1.6208
0.83560997 0.41694999 -1.6109999
0.83932 0.41697001 -1.6111
0.84565002 0.41804999 -1.6152
0.82692999 0.42208001 -1.626
0.83705002 0.42172 -1.6246001
0.83451998 0.41916999 -1.6147
0.83508998 0.4179 -1.6099
0.83774 0.41749001 -1.6083
0.84670001 0.41964 -1.6166
0.84937 0.41923001 -1.615
0.84991002 0.41795999 -1.6101
0.86264998 0.41714001 -1.6069
0.83705002 0.42287999 -1.6243
0.83139002 0.41902 -1.6095001
0.83456999 0.41883001 -1.6087
0.83722001 0.41841999 -1.6072
0.84672999 0.41931 -1.6106
0.84938997 0.41889 -1.609
0.85203999 0.41848001 -1.6073999
0.83497 0.42313999 -1.6207
0.83608001 0.42208001 -1.6166
0.83875 0.42166999 -1.615
0.84456003 0.42254001 -1.6184
0.84884 0.42128 -1.6136
0.85044003 0.42043999 -1.6102999
0.85150999 0.41937 -1.6063
0.85522002 0.41938001 -1.6063
0.85892999 0.41938999 -1.6063
0.86317998 0.41960999 -1.6072
0.83600998 0.42466 -1.622
0.83868998 0.42425001 -1.6205
0.84188002 0.42405 -1.6197
0.85042 0.42302001 -1.6157
0.85202998 0.42217001 -1.6125
0.85469002 0.42175001 -1.6109
0.85469002 0.42025 -1.6052001
0.85733998 0.41982999 -1.6036
0.85997999 0.41940999 -1.602
0.86690998 0.42070001 -1.6069
0.87165999 0.41962999 -1.6028
0.83548999 0.42548001 -1.6209
0.84508002 0.42488 -1.6187
0.84723002 0.42425001 -1.6163
0.84988999 0.42383 -1.6147
0.85575002 0.42171001 -1.6066
0.85839999 0.42128 -1.605
0.86264998 0.4215 -1.6058
0.86690998 0.42172 -1.6066
0.87165999 0.42065001 -1.6025
0.83868998 0.42634001 -1.6199
0.84188002 0.42614001 -1.6192
0.84456003 0.42572001 -1.6176
0.84723002 0.4253 -1.6160001
0.84988999 0.42488 -1.6144
0.85202998 0.42423999 -1.612
0.85469002 0.42381999 -1.6104
0.85841 0.42383 -1.6104
0.86106998 0.42341 -1.6088001
0.86372 0.42298001 -1.6072
0.84293002 0.42769 -1.6205
0.84245998 0.42596 -1.614
0.84723002 0.42640999 -1.6157
0.84988999 0.42598999 -1.6141
0.85360998 0.426 -1.6141
0.85416001 0.42471001 -1.6092
0.85734999 0.42451 -1.6085
0.85839999 0.42343 -1.6044
0.86372 0.42408001 -1.6069
0.84508002 0.42813 -1.6178
0.85042 0.42728001 -1.6145999
0.85044998 0.42427 -1.6032
0.85255998 0.42363 -1.6008
0.85574001 0.42342001 -1.6
0.84988999 0.42806 -1.6135
0.85255998 0.42763999 -1.6119
0.85469002 0.42699 -1.6095001
0.85469002 0.42798001 -1.6093
0.85841 0.42798999 -1.6093
0.86106998 0.42756 -1.6077
0.84188002 0.43230999 -1.6174999
0.84140998 0.43055999 -1.6109999
0.84617001 0.43101999 -1.6127
0.85042 0.43125001 -1.6136
0.85308999 0.43081999 -1.612
0.85680997 0.42930999 -1.6063
0.84188002 0.43325001 -1.6173
0.84350997 0.43239 -1.614
0.84617001 0.43195999 -1.6124001
0.85042 0.43219 -1.6133
0.85308999 0.43177 -1.6117001
0.84775001 0.43356001 -1.6147
0.84568 0.43114999 -1.6057
0.84991002 0.43138 -1.6065
0.85469002 0.43182999 -1.6082
0.85095 0.43426999 -1.6136
0.84991002 0.4323 -1.6063
0.85522002 0.43296999 -1.6088001
0.85788 0.43254 -1.6072
0.85575002 0.43412 -1.6094
0.85841 0.43369001 -1.6078
0.86053002 0.43303001 -1.6052999
0.83816999 0.43700999 -1.6162
0.83875 0.43568999 -1.6113
0.85575002 0.43509001 -1.6091
0.85788 0.43443999 -1.6066999
0.86053002 0.43399999 -1.6051
0.83816999 0.43790001 -1.6159
0.84135997 0.43768999 -1.6152
0.84560001 0.43792999 -1.6161
0.83437002 0.44100001 -1.6210999
0.85095 0.43864 -1.6125
0.85257 0.43786001 -1.6030999
0.85522002 0.43742001 -1.6015
0.83437002 0.44356999 -1.6204
0.83437002 0.44437999 -1.6202
0.83393002 0.44395 -1.6133
0.86741 0.44088 -1.5962
0.86848003 0.44205001 -1.5976
0.83875 0.44837001 -1.6078
0.84241003 0.45124 -1.6131999
0.84188002 0.45208001 -1.6121
0.84723002 0.45120001 -1.6089
0.83827001 0.45320001 -1.5994999
0.84512001 0.45967001 -1.603
0.84460002 0.45943999 -1.6022
