# .PCD v0.7 - Point Cloud Data file format
VERSION 0.7
FIELDS x y z normal_x normal_y normal_z curvature
SIZE 4 4 4 4 4 4 4
TYPE F F F F F F F
COUNT 1 1 1 1 1 1 1
WIDTH 397
HEIGHT 1
VIEWPOINT 0 0 0 1 0 0 0
POINTS 397
DATA ascii
0.0055013318 0.11375736 0.041178357 0.1724714 0.61676633 0.76801884 0.032452263
-0.0017771207 0.11397523 0.040845472 0.068683833 0.61264372 0.78736919 0.02513467
-0.010656958 0.11288375 0.040063519 -0.0064161527 0.58937466 0.80783433 0.019563725
0.026004734 0.1145356 0.031925801 0.56131297 0.60379618 0.56600171 0.046506546
0.0241467 0.12224475 0.023559054 0.55677003 0.73989731 0.37757 0.051120363
0.033336975 0.11252394 0.02407309 0.71927381 0.57583648 0.38866124 0.038288787
0.028338606 0.11715864 0.026258305 0.63124478 0.64281654 0.43395495 0.044606827
0.026865933 0.12249627 0.017770302 0.630077 0.74525589 0.21816655 0.054808896
0.035593253 0.1121932 0.01894502 0.77813143 0.58063042 0.23954077 0.03351089
0.015627805 0.12229217 0.030366909 0.36189175 0.73656994 0.57140094 0.045383174
0.0076885545 0.12340134 0.031618699 0.18991421 0.75441444 0.62832427 0.033864826
0.01806519 0.11668653 0.035417773 0.38392499 0.64942276 0.65639293 0.044944651
0.0086679226 0.11757786 0.037535001 0.20712937 0.66928345 0.71355247 0.033937942
0.017811378 0.12486681 0.025569841 0.40488756 0.79159248 0.45765424 0.045009259
0.0078867879 0.12796107 0.025421973 0.20383258 0.84250546 0.49863496 0.037441738
0.022128992 0.12050786 0.028463023 0.49435773 0.70672947 0.50610656 0.047955662
-0.0020052625 0.12313954 0.031427283 0.090895332 0.7248289 0.68290639 0.018717533
-0.01125026 0.12225164 0.03054915 0.053145293 0.67775887 0.73336112 0.015207675
-0.0021392128 0.11825757 0.036583077 0.076665789 0.66870576 0.73956406 0.020358678
-0.012352896 0.11709262 0.03580451 0.014428021 0.63931304 0.76881123 0.017608261
-0.0017386591 0.12805645 0.025983064 0.11774759 0.69696265 0.70737439 0.013708722
-0.012004809 0.12675551 0.025637534 0.071924232 0.6841141 0.72582006 0.015530056
0.016394665 0.12805751 0.019048586 0.41276264 0.86169559 0.29514015 0.046375301
0.0075435638 0.13313439 0.020552963 0.22823167 0.71268332 0.66331953 0.02419389
0.0017297417 0.13376492 0.019685617 0.18848854 0.72324705 0.66436869 0.01353443
-0.013681364 0.13004372 0.020697851 0.095723189 0.69147098 0.71603417 0.018533334
-0.017233737 0.11173955 0.039507415 -0.029897278 0.56211382 0.82651931 0.028510651
-0.075030476 0.1328852 0.044900063 -0.32682392 0.232125 0.91613543 0.13714646
-0.067339703 0.14171803 0.036734622 0.115606 0.54700738 0.82910687 0.10881492
-0.073823504 0.14273439 0.037628472 -0.11578126 0.53681445 0.83571821 0.11622571
-0.066115245 0.13511957 0.039250821 0.10045697 0.37532228 0.92143452 0.11182321
-0.072091892 0.13594885 0.042530578 -0.13644341 0.32924572 0.93433422 0.13463441
-0.079392955 0.13320743 0.044598985 -0.54630899 0.19395274 0.81481826 0.14507625
-0.081525542 0.14267707 0.037800144 -0.50856513 0.46056467 0.72749001 0.15919778
-0.082924798 0.13677257 0.041507479 -0.67574573 0.25191066 0.69275451 0.16670229
-0.087817989 0.13440952 0.036813982 -0.84104282 0.15962228 0.51688266 0.16498229
-0.06635832 0.12255917 0.04362838 -0.034542926 0.20060061 0.97906393 0.1001673
-0.072558708 0.12558354 0.045038614 -0.2495375 0.12832747 0.9598245 0.11999747
-0.065957785 0.11896271 0.043805748 -0.071364105 0.15566854 0.98522812 0.096921206
-0.071624421 0.11762001 0.045055822 -0.27535859 0.041668486 0.96043813 0.1035449
-0.062602453 0.1257102 0.0417451 0.070930436 0.29049951 0.95424259 0.10342643
-0.068824947 0.12873991 0.043657817 -0.067834288 0.23458889 0.96972501 0.11932029
-0.063066088 0.11795989 0.042977475 -0.023225712 0.19108726 0.98129821 0.091201216
-0.070918992 0.11310011 0.044563781 -0.28747794 0.0057107457 0.95777023 0.092177503
-0.079848036 0.12678632 0.044979494 -0.58726555 0.070659555 0.80630416 0.13036054
-0.077240109 0.11879686 0.044517044 -0.48468113 -0.00086472288 0.87469047 0.1068593
-0.084069826 0.12569451 0.041603282 -0.7520889 0.021823285 0.65870029 0.12381063
-0.087871537 0.1259342 0.03969454 -0.89220953 0.023639068 0.4510026 0.12256856
-0.081616335 0.1165131 0.043012552 -0.69666171 -0.075358644 0.71343082 0.10643652
-0.087223299 0.1178324 0.037363533 -0.8731479 -0.090323299 0.47901401 0.099845603
-0.058462836 0.14756815 0.024734333 0.18103836 0.71857285 0.67147464 0.063867368
-0.057321351 0.14875944 0.022363219 0.18348143 0.74477804 0.64159197 0.058348905
-0.035384063 0.16691524 -0.0031314886 -0.32058552 -0.48403367 -0.81420904 0.069695048
-0.036941264 0.16710475 -0.0028345806 -0.29465374 -0.5054723 -0.81097281 0.069424383
-0.035819802 0.16531363 -0.0024070237 -0.22054778 -0.59350008 -0.77402604 0.073897101
-0.033079743 0.15826982 0.0030321339 0.10234199 0.69114172 0.7154364 0.06087292
-0.051845595 0.15481889 0.011542278 -0.1257187 -0.78573453 -0.60565346 0.068084605
-0.041688308 0.16276985 0.00036538579 -0.15405907 -0.69254255 -0.70473439 0.077551395
-0.049444083 0.16228163 0.0030312876 -0.11555402 -0.72861534 -0.67510515 0.065437816
-0.041871276 0.15681413 0.0055976156 -0.14280863 -0.74051452 -0.65669167 0.067720301
-0.051333565 0.157915 0.0073531349 -0.08215788 -0.78987509 -0.60773963 0.070122004
-0.06447459 0.14873399 0.027539477 0.1031607 0.73004282 0.67557037 0.073890701
-0.072560877 0.1504555 0.030628067 -0.20912693 0.77603626 0.5950073 0.10994422
-0.063570209 0.15190166 0.024093905 -0.048518345 -0.8043502 -0.59217119 0.072330639
-0.072238222 0.15396748 0.026360486 0.29462776 -0.81411445 -0.50041199 0.084967814
-0.079138465 0.15006185 0.029585244 -0.49972796 0.70824552 0.49865848 0.1307729
-0.081456311 0.15242812 0.02504731 0.7151618 -0.61969149 -0.32330492 0.13138947
-0.086519189 0.15057655 0.020998703 0.92168134 -0.37859896 -0.084653825 0.13227542
-0.057096869 0.15678829 0.011181983 -0.037522681 -0.82375389 -0.56570446 0.070099473
-0.057801504 0.15881695 0.0082596568 0.021301379 -0.82431406 -0.56573188 0.073213361
-0.087263159 0.14965962 0.017708717 0.93900722 -0.34003273 -0.051411781 0.12278552
-0.057264667 0.14349969 0.027347075 0.22688378 0.61825097 0.75252205 0.067328639
-0.054742683 0.13544942 0.031960629 0.24019176 0.4890455 0.8385359 0.087195106
-0.054820318 0.14536943 0.024238242 0.2031271 0.67346275 0.7107653 0.060613338
-0.045581397 0.13558006 0.026474053 0.22343457 0.55380094 0.80211067 0.065392032
-0.050938766 0.13827872 0.027708171 0.23577504 0.55334085 0.79888922 0.076700628
-0.018333796 0.12164027 0.029714994 0.065296404 0.64903313 0.75795275 0.023586903
-0.021687655 0.11591397 0.034350898 0.030509941 0.60747176 0.79375511 0.028211905
-0.03187887 0.11588378 0.033339087 0.091756336 0.53017998 0.8429057 0.054743692
-0.021247502 0.12501715 0.025657214 0.10144116 0.65703154 0.74700689 0.025790304
-0.032016281 0.12483852 0.025277093 0.1963281 0.60336047 0.77292395 0.042241104
-0.024848007 0.12108039 0.02897159 0.10678187 0.62749547 0.7712633 0.038601849
-0.031607732 0.12101939 0.029294519 0.15012342 0.5842191 0.79759073 0.047128979
-0.052746858 0.12743816 0.036337744 0.20102708 0.42628983 0.88196659 0.088951655
-0.041495003 0.11643724 0.035357479 0.12808619 0.42454255 0.89630216 0.076262616
-0.052023482 0.11795717 0.039965183 0.10839972 0.33796135 0.93489659 0.085715234
-0.041552078 0.12739176 0.028374303 0.24029003 0.5142355 0.82329983 0.070817776
-0.047313377 0.12941627 0.031964213 0.22055079 0.48937315 0.84372467 0.073976114
-0.041883741 0.12201081 0.032355893 0.19743267 0.47790495 0.85593647 0.075119838
-0.047043327 0.12290053 0.035789806 0.16467391 0.4352183 0.88513702 0.080017857
-0.035532176 0.15614465 0.0053438237 -0.087466814 -0.71020246 -0.69854283 0.060269751
-0.049887434 0.14980337 0.016171167 -0.16291556 -0.73703969 -0.65591997 0.059632741
-0.044801701 0.13778685 0.024939539 0.22039706 0.57436097 0.78837466 0.068041787
-0.047549628 0.14340733 0.022065405 0.19685914 0.63876915 0.74378794 0.06321127
-0.042127315 0.15328985 0.0091855666 -0.13441153 -0.73538154 -0.6641894 0.065106176
-0.046832815 0.15145704 0.013090101 -0.15338475 -0.73941064 -0.65554941 0.064410269
-0.022464631 0.12881386 0.021311967 0.12591413 0.65652543 0.74372041 0.02527882
-0.030874485 0.12856236 0.021410776 0.1876096 0.59903079 0.77843738 0.033785794
-0.039915569 0.13264534 0.023453951 0.248615 0.54627299 0.79986024 0.056840267
-0.06332925 0.14356636 0.031045625 0.19824791 0.58568275 0.78592205 0.082643799
-0.073243447 0.14727296 0.033814959 -0.1448947 0.67738968 0.72121334 0.12318894
-0.060772296 0.13627335 0.035074465 0.20796207 0.45631149 0.86517721 0.10091608
-0.083492421 0.14604557 0.032242984 -0.55145603 0.57761568 0.60187739 0.16975462
-0.08775758 0.14340013 0.031411633 -0.83373314 0.39877144 0.38192976 0.20108373
-0.089001685 0.13731328 0.033784721 -0.84858853 0.2208059 0.48077255 0.17803268
-0.085242093 0.14883947 0.026360374 0.8558073 -0.45022276 -0.25474164 0.1507706
-0.088979036 0.14590269 0.024714587 0.96245825 -0.25490847 -0.093251482 0.16964124
-0.092127196 0.13905352 0.025944477 -0.9836418 0.17929073 0.017424524 0.20477134
-0.058806747 0.12900954 0.038347885 0.16287711 0.37466374 0.91274208 0.098042704
-0.060225237 0.11571258 0.042150542 -0.018642284 0.19906284 0.9798094 0.087642156
-0.090354331 0.12744215 0.033893626 -0.95152783 0.032425493 0.30584851 0.13868295
-0.089603797 0.11668631 0.035620883 -0.94824284 -0.085056596 0.30594257 0.095608801
-0.09307798 0.12714101 0.024820358 -0.96873653 0.027720425 0.24653824 0.17051254
-0.092984512 0.12067058 0.020889636 -0.98251337 -0.063354507 0.17508183 0.13496077
-0.091458544 0.14509597 0.019780071 0.91349965 -0.36095607 -0.18769419 0.15053576
-0.093754359 0.13861322 0.021402854 0.82798016 -0.35790244 -0.43168819 0.17284116
-0.092235103 0.11651091 0.016755063 -0.99360055 -0.096765421 0.058261331 0.12091244
0.024807759 0.10274677 0.04116473 0.51615167 0.43318674 0.73887527 0.038125474
0.032391984 0.092111364 0.038696039 0.63167715 0.29409802 0.71727979 0.02528787
0.026927441 0.096092112 0.042468984 0.5481168 0.33704585 0.76548553 0.032688215
0.033026647 0.086660676 0.039705068 0.63175219 0.2158163 0.74452162 0.026042603
0.027659547 0.086676925 0.044276476 0.55023581 0.20273715 0.81002355 0.026468867
0.033514947 0.078556508 0.040414292 0.63084525 0.09839908 0.76964402 0.023349676
0.02808032 0.076867774 0.044983543 0.54424274 0.058894489 0.83685797 0.026633855
0.014518195 0.093293935 0.050932378 0.31839788 0.2849026 0.90413123 0.036078285
0.0075240824 0.0947989 0.05252935 0.17366269 0.29819983 0.93857241 0.038383771
0.017749442 0.10576668 0.043989889 0.39239028 0.48212701 0.78331566 0.040619411
0.0085760746 0.10768879 0.045683529 0.21330537 0.51982737 0.82721239 0.03735479
0.01872435 0.097371712 0.047733173 0.40290135 0.3522718 0.84473372 0.038607106
0.0090987301 0.1000836 0.049966626 0.21596137 0.39346164 0.89361548 0.036884613
-0.0020987222 0.095224597 0.052362319 0.01097866 0.2987164 0.95427877 0.032361433
-0.011232413 0.094387263 0.050944135 -0.087543674 0.28911152 0.95328414 0.028932607
-0.0017341524 0.1081512 0.045840096 0.048313461 0.51904243 0.85338199 0.032889307
-0.011901731 0.10748795 0.044273321 -0.03578401 0.49819574 0.86632586 0.026407238
-0.0015646428 0.1019797 0.0497104 0.034127418 0.41448703 0.90941507 0.03528915
-0.012613199 0.10080918 0.047917102 -0.071622916 0.38509369 0.92009401 0.030996395
0.016479716 0.085935339 0.051913667 0.34841239 0.17359209 0.92112678 0.035608411
0.0079626525 0.086795039 0.054479454 0.17429708 0.17761959 0.96854109 0.036455784
0.017431071 0.07692302 0.051829401 0.35791776 0.043863069 0.93272233 0.033715911
0.0080445856 0.076828033 0.05512803 0.18421791 0.038812976 0.98211879 0.036947984
0.020536941 0.088151678 0.048923504 0.42205301 0.21662796 0.88030881 0.033440799
0.022182537 0.075686693 0.049013801 0.44083685 0.029159607 0.8971135 0.030783206
-0.001872247 0.086503975 0.054562852 0.017585542 0.17732359 0.9839955 0.030377522
-0.011543338 0.085997 0.052293878 -0.10388061 0.17562011 0.97896188 0.024289513
-0.0020309873 0.076684617 0.055320326 0.020320676 0.049746741 0.99855512 0.030448224
-0.011639522 0.076692782 0.053332161 -0.10755295 0.053266618 0.99277139 0.026138924
0.033492479 0.067556173 0.040391371 0.60199273 -0.056864366 0.79647422 0.024820138
0.028762896 0.066830747 0.044002213 0.5393222 -0.082973428 0.83800179 0.027536964
0.026992444 0.057782218 0.043021817 0.49004117 -0.20575544 0.84706807 0.027094381
0.023798371 0.047362246 0.0408854 0.43218797 -0.32208332 0.84230393 0.022651423
0.015758965 0.067424156 0.051421776 0.32223973 -0.087979421 0.94256097 0.035383191
0.0078304559 0.066959053 0.054034613 0.18804203 -0.08231926 0.97870511 0.038235784
0.013872067 0.05892976 0.050036408 0.31005061 -0.17823957 0.93386257 0.036301821
0.007720368 0.057170797 0.051194385 0.20480534 -0.17596228 0.96285617 0.037653107
0.020706115 0.065939933 0.048630718 0.39816108 -0.10730974 0.91101724 0.031499315
0.018328702 0.05663427 0.047222454 0.36992148 -0.21000813 0.90501642 0.030363368
0.012546336 0.052890103 0.048567783 0.3011741 -0.21250652 0.92958868 0.037058976
-0.0018538865 0.066737697 0.054774381 0.04386067 -0.074698575 0.99624109 0.034162611
-0.011643606 0.066899739 0.052606095 -0.09780629 -0.038718469 0.994452 0.028627507
-0.0019969416 0.056852642 0.052709065 0.058273204 -0.14453678 0.98778206 0.039249726
-0.0117252 0.057209589 0.051363781 -0.081820793 -0.088909954 0.99267334 0.036285538
-0.01568877 0.05246805 0.049622193 -0.099687509 -0.027990473 0.99462503 0.035302039
0.0063823606 0.050246343 0.049880758 0.21418571 -0.2045608 0.95513314 0.040027488
0.018221136 0.046579916 0.043640524 0.37446141 -0.27612352 0.88517481 0.031686351
0.0090820678 0.045178279 0.047604889 0.26469451 -0.21464244 0.9401412 0.04143893
0.017091246 0.040136054 0.041596375 0.3756806 -0.33403894 0.86445481 0.028191069
0.0083439415 0.039230768 0.046343181 0.30153224 -0.19180791 0.9339636 0.04269385
-0.0016634745 0.049981833 0.051083036 0.096426971 -0.14836654 0.98422009 0.042389568
-0.012388811 0.046996828 0.049864773 -0.011119236 -0.0031370439 0.99993324 0.043181501
-0.013771599 0.039961647 0.050080307 0.038573381 0.15102871 0.98777652 0.040475111
-0.0017799317 0.044211227 0.050030973 0.12007504 -0.097031623 0.98801154 0.045552082
-0.011714329 0.046585765 0.049983125 0.0035912101 0.0033711698 0.99998784 0.042585477
-0.0016329743 0.038860857 0.049849406 0.17504545 -0.059577253 0.98275614 0.047894545
-0.0091803148 0.039246466 0.050656419 0.096345864 0.082693718 0.99190688 0.047219682
0.043528207 0.093976259 0.022386413 0.82607597 0.38888681 0.40787932 0.019065076
0.034059927 0.1043424 0.031053858 0.69393384 0.46853718 0.54674375 0.032644
0.028046099 0.10696805 0.035887279 0.57977259 0.49542043 0.64685577 0.036580157
0.035476983 0.096127227 0.033744358 0.69537193 0.36178863 0.62094033 0.024483193
0.031018665 0.098920308 0.037476618 0.6215021 0.38701141 0.68114412 0.030204557
0.036273442 0.10622277 0.025974721 0.74649733 0.50629485 0.43174908 0.029516125
0.032140903 0.11050695 0.02861329 0.683092 0.54801667 0.48276603 0.03786828
0.040526923 0.096937448 0.026200315 0.78944939 0.40057951 0.46508679 0.023187593
0.044970606 0.086659193 0.025145164 0.80823302 0.29674128 0.50862956 0.023410948
0.052594822 0.072131887 0.019207377 0.75975847 0.25016797 0.60015255 0.028399762
0.046930015 0.076800756 0.025602533 0.77873957 0.18845683 0.59837174 0.024084395
0.037715349 0.086576514 0.035046659 0.70357132 0.23010795 0.67233747 0.024755066
0.038173866 0.07666944 0.036076136 0.68688989 0.094328232 0.72061396 0.022435976
0.042601451 0.087337188 0.02870314 0.77997756 0.27862284 0.56036091 0.025155222
0.043559175 0.076933607 0.030021526 0.74675202 0.14261316 0.64963287 0.023863476
0.04461563 0.096549742 0.015971988 0.86058301 0.43889996 0.25838682 0.018677736
0.044815488 0.096977606 0.0090021566 0.87155831 0.4835124 0.081252187 0.017032448
0.03962636 0.10615156 0.017738909 0.82095784 0.52243996 0.23040117 0.03049404
0.042475089 0.10017073 0.017389743 0.84186465 0.46879438 0.26738688 0.020888569
0.047827382 0.088051438 0.017937286 0.85223883 0.37773174 0.3619498 0.022253465
0.054206297 0.072552003 0.017014712 0.76925987 0.29267579 0.56796134 0.029278968
0.051321547 0.074009128 0.020187626 0.78304142 0.24285978 0.57259518 0.026265053
0.049644724 0.087202758 0.012769129 0.86878282 0.41757146 0.26617765 0.022006828
0.019844508 0.11009522 0.039937712 0.42575085 0.54569262 0.72177267 0.041193441
0.011649204 0.11191743 0.04193325 0.272122 0.58441991 0.76446259 0.039858293
0.044645682 0.05721619 0.028925562 0.62509012 -0.082001261 0.77623332 0.027457202
0.053004008 0.066219084 0.020863235 0.71665514 0.17688645 0.67462331 0.031276345
0.047867462 0.066993788 0.025954448 0.71305239 0.084421597 0.69600952 0.025428047
0.053498924 0.057231389 0.022029638 0.61032027 0.05081645 0.79052317 0.03510322
0.048388399 0.05675187 0.025859915 0.61506885 -0.037845872 0.78756458 0.030816477
0.037333991 0.067050137 0.036693055 0.64597243 -0.038270917 0.76240081 0.024163915
0.033192463 0.064717434 0.040196851 0.59287721 -0.092949055 0.79991066 0.026127696
0.03858301 0.05646833 0.03388973 0.59637266 -0.16177222 0.78623748 0.026704349
0.031075979 0.054829709 0.039214443 0.53028023 -0.22928014 0.81623125 0.025598992
0.043601885 0.066469707 0.030420585 0.69056195 0.015437053 0.72310847 0.024013406
0.042626131 0.060860749 0.031134102 0.649306 -0.062981509 0.7579149 0.026639149
0.043007206 0.050095972 0.028766787 0.54918998 -0.20128824 0.81109393 0.027701342
0.054199077 0.050159197 0.021535153 0.51599884 -0.079102553 0.85292906 0.039221559
0.047649719 0.047449887 0.025038216 0.5144304 -0.1957625 0.83488828 0.027042678
0.038110416 0.048324782 0.031645972 0.52801847 -0.27416962 0.80375838 0.024426306
0.028922327 0.046769001 0.037515797 0.46978292 -0.33940539 0.81492823 0.022545066
0.026206052 0.040073641 0.035204321 0.41508403 -0.45094904 0.79015833 0.019162748
0.03898095 0.043406826 0.029016798 0.47793508 -0.37323093 0.79515833 0.027057432
0.033871762 0.042827588 0.032088254 0.46025389 -0.42054069 0.78186435 0.028227152
0.038228538 0.040032357 0.027439255 0.44197425 -0.44518378 0.77876192 0.028181493
0.032291334 0.038607359 0.03021867 0.4206109 -0.47973889 0.77002406 0.020738047
0.05753668 0.067772761 0.015518479 0.71333325 0.31338203 0.62685519 0.035516471
0.04961732 0.07167571 0.023135902 0.75584447 0.17289682 0.63151073 0.02527268
0.0593367 0.057739355 0.018083846 0.56680328 0.16743131 0.80666029 0.040157117
0.056505777 0.049177881 0.02024032 0.48348513 -0.077195853 0.87194204 0.036924422
0.052313667 0.044965643 0.021551305 0.46518779 -0.22993706 0.85482705 0.033042684
0.023652345 0.047505215 0.041141562 0.42566097 -0.31543055 0.84812516 0.027194859
0.021916823 0.039124906 0.037831079 0.39508083 -0.423563 0.81517208 0.023867805
-0.019108433 0.093088239 0.048934549 -0.14032771 0.26616523 0.95365834 0.028618746
-0.021474067 0.10628754 0.04234159 -0.054765478 0.45985252 0.88630491 0.037105713
-0.031040644 0.10402627 0.041540906 -0.056250185 0.37390926 0.92575794 0.050531071
-0.022619976 0.097993053 0.04616579 -0.11613356 0.32302663 0.93923736 0.035726346
-0.031881068 0.097065985 0.0440991 -0.13157786 0.25894415 0.95688826 0.048054341
-0.043234773 0.10407931 0.040416263 -0.038145468 0.23100391 0.97220474 0.068216689
-0.052236814 0.10402549 0.041701995 -0.061007295 0.11075919 0.99197304 0.077182479
-0.041916054 0.096966617 0.042730793 -0.12552524 0.16521372 0.97823709 0.067951389
-0.051737152 0.097015664 0.042418789 -0.13501093 0.039599683 0.99005246 0.079338633
-0.020559054 0.085777789 0.049293272 -0.17656642 0.17177503 0.96918398 0.023040408
-0.026505351 0.08278387 0.047915079 -0.21592507 0.11717493 0.96935362 0.025740141
-0.020254245 0.076902099 0.049799964 -0.19019429 0.057533748 0.98005921 0.021779627
-0.025764819 0.089379333 0.047618084 -0.18537115 0.19727397 0.96266323 0.030372763
-0.032155439 0.08720082 0.045461614 -0.2213292 0.14123686 0.96491736 0.040065359
-0.025873125 0.074958861 0.048235636 -0.23075087 0.025785903 0.97267115 0.029052258
-0.033122111 0.077057332 0.045949571 -0.29216799 0.01610988 0.9562313 0.042746458
-0.041721627 0.08693926 0.042881332 -0.24520868 0.058339741 0.96771336 0.05904261
-0.050773397 0.087047443 0.041246213 -0.2682094 -0.04957556 0.96208417 0.058701951
-0.041930947 0.076726645 0.042598493 -0.33544824 -0.045897767 0.9409399 0.056489129
-0.050604872 0.07731989 0.040055968 -0.37784502 -0.13751727 0.91559935 0.059909593
-0.061533153 0.10383563 0.042525977 -0.15674582 -0.0029061523 0.98763472 0.078722492
-0.072605707 0.10976355 0.043709096 -0.3811155 -0.069643468 0.92190063 0.090040192
-0.061544564 0.096972555 0.042066537 -0.22980054 -0.099620186 0.96812576 0.07615301
-0.069924451 0.096300557 0.04073824 -0.40635785 -0.23351547 0.8833707 0.077430956
-0.079891764 0.11100337 0.042136259 -0.63162583 -0.11663271 0.76644999 0.092601776
-0.060412124 0.087533712 0.039492682 -0.32502708 -0.1818499 0.92805606 0.063461006
-0.068941116 0.088252328 0.037776746 -0.47825539 -0.28199211 0.83171642 0.061489712
-0.05939503 0.078521892 0.037669308 -0.43526754 -0.22763538 0.87104779 0.063525043
-0.066255599 0.081607781 0.035912238 -0.50083458 -0.30387816 0.81044602 0.064052567
-0.018741978 0.067727603 0.050254855 -0.17176725 -0.027697392 0.98474813 0.025538985
-0.017599078 0.058979847 0.049661186 -0.14484753 -0.048651874 0.98825717 0.029192004
-0.024263479 0.066331051 0.048256341 -0.24337776 -0.035415865 0.96928477 0.034058411
-0.035355397 0.067537613 0.044497438 -0.3505128 -0.075155966 0.93353754 0.051088218
-0.022364495 0.056247924 0.048276901 -0.2152282 -0.032772083 0.97601372 0.042260531
-0.037286919 0.060219236 0.043055139 -0.39891735 -0.1228393 0.90872186 0.053885676
-0.041514549 0.066855453 0.042019736 -0.39521655 -0.12629573 0.90986443 0.053201389
-0.048356988 0.071040526 0.039875913 -0.41367203 -0.14809762 0.89829981 0.054765224
-0.040630624 0.059313189 0.041123703 -0.43750033 -0.12475359 0.8905223 0.055369977
-0.021236833 0.045488548 0.048264671 -0.11372785 0.13598642 0.98416138 0.033616267
-0.027958374 0.044143349 0.046908282 -0.22197984 0.26586643 0.93810445 0.050647564
-0.021251144 0.040348683 0.049564268 -0.059511453 0.25613925 0.96480626 0.037046209
-0.029155143 0.04017102 0.04825962 -0.19131561 0.38114068 0.90450549 0.053477116
-0.022209521 0.049704503 0.047666147 -0.18502614 0.03807177 0.98199588 0.045883313
-0.031794235 0.046916239 0.044930581 -0.38570759 0.088616468 0.91835546 0.065848149
-0.034561515 0.040127557 0.046049442 -0.3913511 0.24206538 0.88783371 0.068667144
-0.041509937 0.045104556 0.040685646 -0.53067243 0.15252672 0.83374 0.067300297
-0.047727559 0.047357041 0.036638744 -0.62140161 0.10164568 0.77687073 0.075246744
-0.041955665 0.039312862 0.04362813 -0.51040435 0.32436368 0.79641426 0.07723096
-0.047258232 0.041767329 0.039127417 -0.61108106 0.28608248 0.73806286 0.082240716
-0.05295267 0.048813857 0.03305598 -0.70287478 0.034407098 0.71048099 0.079455473
-0.053484756 0.044467274 0.033974882 -0.72979313 0.15247926 0.66644734 0.085152745
-0.024276813 0.11019339 0.038670957 -0.0093007619 0.50201339 0.86480987 0.037821002
-0.032375749 0.10885706 0.038216211 -0.0024587617 0.42460015 0.90537763 0.051739801
-0.041153342 0.1086579 0.03865226 0.026784183 0.31491849 0.94874072 0.064595006
-0.051880084 0.10923203 0.040978208 0.0069089243 0.19851559 0.98007339 0.081997551
-0.062516108 0.10884415 0.043161459 -0.11725239 0.059968006 0.99128991 0.081994869
-0.072342277 0.10559429 0.042874046 -0.40504074 -0.13526955 0.90423679 0.086981229
-0.074972861 0.097459972 0.040065404 -0.55308968 -0.2787315 0.78511178 0.086065002
-0.080465756 0.10450178 0.039190721 -0.68473291 -0.22692746 0.69256389 0.090586849
-0.080741495 0.09637548 0.035181958 -0.731592 -0.32673895 0.59834337 0.071901239
-0.085783452 0.10491262 0.033967644 -0.86470914 -0.23855497 0.44200635 0.10172704
-0.088839412 0.10251013 0.024468405 -0.94921172 -0.23686568 0.20710331 0.091674656
-0.085612796 0.096830159 0.028765224 -0.88117647 -0.3132855 0.35409069 0.073109441
-0.087547801 0.096726507 0.022181034 -0.94718248 -0.27474269 0.16541398 0.060805026
-0.073532142 0.087083496 0.034694094 -0.60256463 -0.34153822 0.72129571 0.06330283
-0.062470436 0.074581727 0.034998324 -0.52480394 -0.28459406 0.80223876 0.05920051
-0.070054173 0.077810355 0.032261029 -0.62057292 -0.35912788 0.69707704 0.061768543
-0.07439176 0.073744759 0.025809672 -0.76602155 -0.41622305 0.48986667 0.059821136
-0.078744367 0.087905854 0.031571966 -0.73200113 -0.38780427 0.56016266 0.060397327
-0.076406218 0.080996089 0.028593024 -0.73826027 -0.40687913 0.53797877 0.056878783
-0.083341926 0.087811686 0.02474728 -0.84282434 -0.41428638 0.34353161 0.047393553
-0.086164221 0.090266421 0.020447815 -0.92298484 -0.34392035 0.17267841 0.050873108
-0.078731462 0.078475043 0.022848878 -0.81829673 -0.42701676 0.38476899 0.059302658
-0.088716976 0.10698529 0.028411957 -0.91764224 -0.21388163 0.33494386 0.11409777
-0.08963713 0.10415464 0.022750223 -0.9601863 -0.21636215 0.17671926 0.10494286
-0.088596143 0.098813303 0.01662381 -0.97402346 -0.22560421 0.019519912 0.064035676
-0.084959991 0.08400663 0.016949344 -0.88992476 -0.3833926 0.24707091 0.040650714
-0.086973786 0.090546377 0.016334245 -0.93620837 -0.34428486 0.07058233 0.055625428
-0.081600837 0.076836564 0.016290642 -0.85429382 -0.43103364 0.29050305 0.054330461
-0.083699636 0.073995873 0.0080932621 0.86569548 0.43818411 -0.24200422 0.052532159
-0.028783266 0.063650817 0.046660416 -0.30448139 -0.057233028 0.95079726 0.049397524
-0.032438751 0.065689377 0.045573883 -0.33541474 -0.069678999 0.9394902 0.051040813
-0.028678531 0.05529391 0.046270654 -0.31947255 -0.060943436 0.94563377 0.058322396
-0.034351241 0.055408765 0.04381505 -0.39797851 -0.078926951 0.91399324 0.056504529
-0.045914587 0.064460665 0.039569058 -0.44818446 -0.16183798 0.87916958 0.052537773
-0.052278087 0.066740438 0.037341289 -0.48262107 -0.20139758 0.852359 0.052896217
-0.042755913 0.055445947 0.039413426 -0.48915279 -0.11409391 0.86470348 0.0563155
-0.050118878 0.056512114 0.035571307 -0.56640565 -0.15876457 0.80868936 0.059482504
-0.057293642 0.061535448 0.032660339 -0.59770173 -0.25385094 0.76046854 0.058599345
-0.056674667 0.056957621 0.031264499 -0.6563682 -0.2192647 0.72187519 0.060446605
-0.03611467 0.04902637 0.04283474 -0.4416258 -0.0099869724 0.89714372 0.060385045
-0.041946229 0.049468584 0.039673258 -0.52050358 -0.0069344454 0.85383135 0.061648611
-0.049778618 0.050139718 0.034959871 -0.63200575 -0.02766284 0.77446979 0.068831228
-0.054390982 0.050208595 0.031433251 -0.70688212 -0.090646468 0.70149904 0.065686502
-0.061582036 0.049526691 0.022667116 -0.88320476 -0.10318135 0.45749637 0.085571542
-0.063583158 0.048727289 0.018459402 -0.93394327 -0.1341183 0.33130395 0.093536451
-0.062154979 0.045007747 0.021084446 -0.91166437 0.19729915 0.36047351 0.10430993
-0.063197337 0.04575197 0.018209727 -0.95045179 0.013538371 0.31057701 0.10993016
-0.0606579 0.068617724 0.033928722 -0.5659222 -0.27810845 0.77613646 0.056712527
-0.068222433 0.070763916 0.030276449 -0.66257602 -0.36208999 0.65565532 0.060497507
-0.064059436 0.062698595 0.028872125 -0.69240284 -0.33607844 0.63845879 0.061086245
-0.070838898 0.066897355 0.024930036 -0.76589829 -0.41051245 0.49485284 0.064121686
-0.063467488 0.059030436 0.026658019 -0.73681778 -0.3325288 0.58866304 0.065626539
-0.068453282 0.06073387 0.022171646 -0.80503273 -0.39937848 0.43865603 0.066768467
-0.076843753 0.071964405 0.019439645 -0.82957429 -0.44055662 0.34309825 0.062470429
-0.056437414 0.048961528 0.029769052 -0.78007746 0.013780651 0.6255312 0.082704313
-0.058118079 0.044753406 0.029171724 -0.83442074 0.10295675 0.54142588 0.090168133
-0.060843963 0.041653831 0.026041314 -0.8834874 0.22546194 0.41062987 0.098918177
-0.072859213 0.064922743 0.018897295 -0.82831603 -0.4404054 0.3463172 0.065172702
-0.06456618 0.057228856 0.023354871 -0.80596334 -0.32536519 0.49453068 0.071400419
-0.068940707 0.060638092 0.02114783 -0.8204385 -0.40675822 0.40178156 0.066457421
-0.064789943 0.048943132 0.012844107 -0.97387302 -0.086283654 0.21006311 0.10744215
-0.077917084 0.071354963 0.016335241 -0.84409058 -0.45245066 0.28774896 0.058648746
-0.0646329 0.043268546 0.01367605 -0.96762532 0.16181833 0.19369052 0.11550981
-0.064750798 0.043897349 0.0082118483 0.9910872 -0.11662187 -0.064385615 0.10590351
-0.064778619 0.04157133 0.011741023 0.97947001 -0.17109762 -0.10660261 0.10590351
-0.065323673 0.040454429 0.0093742702 0.97364056 -0.21733193 -0.06921611 0.11338136
-0.064748071 0.045221999 0.011388085 -0.98535258 0.040792361 0.16557863 0.10907725
-0.064875104 0.046100397 0.0049944757 0.99867243 0.01815089 -0.048206981 0.1105411
-0.064526483 0.043914858 0.0042432868 0.99028659 -0.13882603 -0.0077368747 0.11494869
-0.016749797 0.18368328 -0.0199429 0.76003373 0.11971506 0.63876206 0.01580135
-0.015092991 0.17476441 -0.0186895 0.63653082 0.32356185 0.70009732 0.014083379
-0.016377114 0.1616862 -0.01053759 0.45897105 0.45050082 0.76576406 0.022104505
-0.016203677 0.1600288 -0.0097533753 0.44792685 0.46898481 0.76119298 0.022511095
-0.013442007 0.16698448 -0.015590371 0.49062455 0.47083163 0.73321563 0.012224134
-0.014311411 0.16093725 -0.011316267 0.45353296 0.47802046 0.75219965 0.022104505
-0.013884197 0.18405443 -0.023569405 0.78035897 0.15500438 0.60581636 0.01580135
-0.011667931 0.17697133 -0.023407191 0.6973837 0.33895645 0.63147807 0.01580135
-0.0090183113 0.16992341 -0.02131507 0.57617986 0.50580496 0.64201099 0.015061744
-0.025106722 0.17955314 -0.012078793 -0.44566759 -0.45078826 -0.77341473 0.078345314
-0.026730543 0.17967227 -0.011491014 -0.41818956 -0.45969212 -0.7834543 0.070276082
-0.025360528 0.17713827 -0.010723758 -0.45521459 -0.42519754 -0.78229582 0.074223474
-0.030464103 0.17186749 -0.0073024561 -0.34967673 -0.44880489 -0.82237482 0.06074214
-0.020760959 0.18431246 -0.015558277 0.72844154 0.047982488 0.68342566 0.014083379
-0.021559458 0.17798677 -0.013388988 -0.52179968 -0.40747005 -0.74946195 0.08191397
-0.027537446 0.17451806 -0.008496142 -0.42523375 -0.41220596 -0.80576825 0.062544189
-0.038784578 0.17020659 -0.0041678241 -0.21728283 -0.53059417 -0.81930339 0.061575301
-0.022866044 0.16577007 -0.0058575156 0.37844732 0.53120226 0.75802493 0.062852405
-0.031690966 0.16730735 -0.004240213 -0.28292283 -0.53497362 -0.79608911 0.071430132
-0.022392254 0.16036722 -0.0023142823 0.26398593 0.59066784 0.7625109 0.049219225
-0.030201767 0.15991586 0.0010513099 0.13581389 0.66660357 0.73293537 0.060762152
-0.021500491 0.17097278 -0.010323864 -0.55112976 -0.3125121 -0.77368742 0.075149365
-0.027504871 0.17386614 -0.0081881909 -0.43018159 -0.4042778 -0.80715752 0.062544189
-0.041501328 0.16659862 -0.0017599979 -0.18320946 -0.5945282 -0.78292435 0.0719257
-0.048156515 0.16647753 -0.00072633312 -0.087667495 -0.67099285 -0.73626286 0.064297691
-0.037272505 0.16198194 0.00033926585 -0.20810865 -0.63555741 -0.74347669 0.075452946
-0.067180432 0.16275898 -0.0063605062 0.46366039 -0.79400682 -0.39315668 0.048104376
-0.071443915 0.15982977 -0.0053714919 0.52026266 -0.79694247 -0.30693555 0.049271654
-0.06651938 0.16553849 -0.016705072 0.37898231 -0.84477741 -0.37778765 0.034304
-0.071421236 0.16275115 -0.01618086 0.37706104 -0.86365378 -0.33455506 0.031979781
-0.066777252 0.16455695 -0.011838635 0.4313429 -0.81870294 -0.37903669 0.04159762
-0.073321573 0.16059017 -0.011791894 0.43083972 -0.85293871 -0.29474184 0.035752531
-0.076973811 0.16188358 -0.019299526 0.3052451 -0.8966291 -0.32075179 0.02817196
-0.077323101 0.15963127 -0.014532961 0.39653608 -0.87421924 -0.28017831 0.029641308
-0.073322475 0.17203003 -0.038309507 -0.012527005 -0.88538235 -0.46469471 0.008298941
-0.077724881 0.17271873 -0.038948759 -0.035859842 -0.84198707 -0.53830457 0.010933367
-0.067124076 0.16932051 -0.02306723 0.4633407 -0.79083008 -0.39987892 0.030925343
-0.071732305 0.1666055 -0.025336605 0.30911711 -0.87803525 -0.36537749 0.030691188
-0.067177512 0.17135732 -0.029095814 0.42522806 -0.82277972 -0.37711361 0.029740244
-0.072921783 0.16927613 -0.032603379 0.1058194 -0.89246696 -0.43852589 0.0073696198
-0.078059502 0.16525394 -0.025531104 0.052581985 -0.92762321 -0.36979759 0.020636227
-0.078231722 0.16227449 -0.020553535 0.27080542 -0.90428215 -0.33005792 0.028601298
-0.078522898 0.1697771 -0.034225762 0.04397383 -0.86024159 -0.5079869 0.0077027828
-0.034360636 0.15677822 0.0048267972 0.088199407 0.69991601 0.70875841 0.058744963
-0.066227399 0.17494702 -0.04678411 -0.62412179 -0.71209586 -0.32154539 0.0070144571
-0.072059318 0.1770611 -0.044939768 -0.10921069 -0.8832466 -0.45601365 0.0070144571
-0.069207452 0.18145347 -0.055287704 -0.5136236 -0.74973643 -0.4172363 0.0082471324
-0.064941853 0.17737585 -0.054953448 -0.7125383 -0.63100088 -0.30680138 0.0082471324
-0.069946289 0.17998385 -0.051914044 -0.40609428 -0.81220978 -0.41881105 0.0073820697
-0.077909902 0.17490199 -0.04452179 0.57916766 -0.70018637 -0.41749719 0.0070144571
